ply
format ascii 1.0
comment PCL generated
element vertex 2049
property float x
property float y
property float z
element camera 0
property float view_px
property float view_py
property float view_pz
property float x_axisx
property float x_axisy
property float x_axisz
property float y_axisx
property float y_axisy
property float y_axisz
property float z_axisx
property float z_axisy
property float z_axisz
property float focal
property float scalex
property float scaley
property float centerx
property float centery
property int viewportx
property int viewporty
property float k1
property float k2
end_header
96.428299 -8.0430498 810
97.431 -8.0528402 811
98.3144 -8.0527 811
99.197701 -8.0525599 811
100.081 -8.0524197 811
101.089 -8.0622101 812
102.099 -8.0719995 813
102.984 -8.0718498 813
103.997 -8.0816402 814
104.883 -8.0814896 814
105.769 -8.0813503 814
106.786 -8.0911303 815
107.673 -8.0909796 815
108.693 -8.10075 816
109.581 -8.1006002 816
110.604 -8.1103802 817
111.493 -8.11022 817
112.52 -8.1199999 818
113.409 -8.1198397 818
114.299 -8.1196899 818
115.33 -8.1294498 819
116.22 -8.1293001 819
117.111 -8.1291399 819
118.145 -8.1388998 820
119.037 -8.1387396 820
120.074 -8.1485004 821
120.967 -8.1483402 821
121.859 -8.14818 821
122.751 -8.1480103 821
123.794 -8.1577702 822
124.838 -8.1675797 823
125.733 -8.1674099 823
126.627 -8.1672401 823
127.675 -8.177 824
128.57001 -8.1768303 824
129.62199 -8.1865797 825
130.51801 -8.18641 825
131.573 -8.1961603 826
132.47 -8.1959801 826
133.528 -8.2057304 827
134.425 -8.2055502 827
135.48599 -8.2152901 828
136.38499 -8.2151098 828
137.44901 -8.2248602 829
138.34801 -8.2246799 829
139.416 -8.2344198 830
140.31599 -8.2342396 830
141.386 -8.2439699 831
142.459 -8.2537098 832
143.533 -8.2634497 833
144.60899 -8.2732401 834
145.688 -8.2829704 835
146.769 -8.2926998 836
147.851 -8.3024302 837
148.936 -8.3121595 838
149.84399 -8.3119698 838
150.93201 -8.3217001 839
152.022 -8.3314199 840
153.114 -8.3411503 841
154.02499 -8.3409595 841
155.12 -8.3506804 842
156.40199 -8.3703203 844
157.502 -8.3800402 845
158.41701 -8.3798399 845
159.52 -8.3895597 846
160.815 -8.4091902 848
161.923 -8.4189596 849
24.7584 -7.1634402 810
25.581499 -7.14573 808
26.433001 -7.1368499 807
27.316099 -7.1368198 807
28.1642 -7.1279402 806
29.010099 -7.1190701 805
29.8909 -7.11903 805
30.7717 -7.119 805
31.6525 -7.1189599 805
32.533298 -7.1189198 805
33.414001 -7.1188798 805
34.337299 -7.1276798 806
35.219101 -7.1276398 806
36.1008 -7.1276002 806
36.982498 -7.1275501 806
37.864201 -7.1275101 806
38.7458 -7.12746 806
39.627399 -7.1274199 806
40.508999 -7.1273699 806
41.339199 -7.1184802 805
42.219601 -7.1184301 805
43.099998 -7.1183701 805
43.925701 -7.1094799 804
44.804901 -7.1094298 804
45.684101 -7.1093702 804
46.563202 -7.1093202 804
47.442299 -7.1092601 804
48.3214 -7.1092 804
49.200401 -7.1091399 804
50.079399 -7.1090798 804
50.958401 -7.1090202 804
51.901699 -7.1178002 805
52.7817 -7.1177402 805
53.661598 -7.1176801 805
54.6092 -7.1264501 806
55.4902 -7.12639 806
56.370998 -7.1263199 806
57.180801 -7.1174102 805
58.060398 -7.1173401 805
58.940102 -7.11727 805
59.819599 -7.1171999 805
60.6992 -7.1171298 805
61.578701 -7.1170502 805
62.458099 -7.1169801 805
63.337502 -7.11691 805
64.216904 -7.1168299 805
65.096199 -7.1167498 805
65.975403 -7.1166701 805
66.854599 -7.1166 805
67.649597 -7.1076698 804
68.612801 -7.1164398 805
69.491798 -7.1163502 805
70.370697 -7.1162701 805
71.161102 -7.1073499 804
72.128502 -7.1160998 805
73.007202 -7.1160102 805
73.886002 -7.1159301 805
74.764603 -7.11584 805
75.737198 -7.1245899 806
76.616898 -7.1244998 806
77.400299 -7.1155701 805
78.375999 -7.12432 806
79.255402 -7.1242299 806
80.2342 -7.1329699 807
81.114601 -7.1328802 807
81.995003 -7.1327801 807
82.875298 -7.13269 807
83.755501 -7.1325898 807
84.635597 -7.1324902 807
85.621696 -7.1412301 808
86.5028 -7.14113 808
87.383904 -7.1410298 808
88.264801 -7.1409302 808
89.145699 -7.14082 808
90.026497 -7.1407199 808
90.907402 -7.1406202 808
91.901703 -7.1493502 809
92.783302 -7.1492901 809
93.665001 -7.1491399 809
94.546501 -7.1490302 809
95.545998 -7.1577601 810
96.428398 -7.15765 810
97.431099 -7.16643 811
98.314499 -7.1663198 811
99.197899 -7.1662002 811
100.081 -7.16609 811
101.089 -7.1748099 812
101.973 -7.1746998 812
102.984 -7.1834102 813
103.869 -7.1833 813
104.883 -7.1920199 814
105.769 -7.1918998 814
106.655 -7.1917801 814
107.673 -7.20049 815
108.693 -7.2092099 816
109.581 -7.2090802 816
110.469 -7.2089601 816
111.493 -7.21767 817
112.382 -7.2175498 817
113.41 -7.2262602 818
114.299 -7.22613 818
115.33 -7.2348399 819
116.22 -7.2347102 819
117.111 -7.23458 819
118.001 -7.2344499 819
119.037 -7.2431598 820
119.928 -7.2430301 820
120.967 -7.25173 821
122.007 -7.2604299 822
122.901 -7.2603002 822
123.794 -7.26016 822
124.687 -7.2600298 822
125.733 -7.2687201 823
126.627 -7.26859 823
127.676 -7.2772799 824
128.57001 -7.2771401 824
129.62199 -7.2858901 825
130.67599 -7.29459 826
131.573 -7.2944498 826
132.63 -7.3031402 827
133.528 -7.303 827
134.588 -7.3116798 828
135.487 -7.3115401 828
136.55 -7.32023 829
137.44901 -7.3200798 829
138.515 -7.3287702 830
139.416 -7.32862 830
140.485 -7.3373098 831
141.55701 -7.3459902 832
142.63 -7.35467 833
143.533 -7.3545198 833
144.61 -7.3632002 834
145.688 -7.3718801 835
146.769 -7.3805599 836
147.85201 -7.3892398 837
148.936 -7.3979101 838
150.02299 -7.40659 839
150.93201 -7.4064398 839
152.022 -7.4151702 840
153.114 -7.42384 841
154.20799 -7.4325099 842
155.12 -7.4323502 842
156.217 -7.44103 843
157.502 -7.4585199 845
158.605 -7.4671898 846
159.709 -7.4758601 847
161.005 -7.49335 849
162.114 -7.5020199 850
23.842501 -6.2690101 809
24.6668 -6.25349 807
25.5499 -6.2534699 807
26.4002 -6.2456999 806
27.2484 -6.2379298 805
28.129299 -6.2378998 805
28.9741 -6.2301302 804
29.8538 -6.2301002 804
30.7335 -6.2300701 804
31.613199 -6.2300401 804
32.492901 -6.23001 804
33.372501 -6.22998 804
34.294701 -6.2377 805
35.1754 -6.2376699 805
36.056 -6.2376399 805
36.9366 -6.2375998 805
37.8172 -6.2375698 805
38.6978 -6.2375302 805
39.5783 -6.2375002 805
40.458801 -6.2374601 805
41.339199 -6.2374201 805
42.2197 -6.23738 805
43.099998 -6.23734 805
43.9258 -6.2295499 804
44.805 -6.2295098 804
45.684101 -6.2294698 804
46.505402 -6.2216802 803
47.3834 -6.2216401 803
48.321499 -6.2293401 804
49.2005 -6.2293 804
50.079498 -6.22925 804
50.958401 -6.2291999 804
51.901798 -6.2368999 805
52.781799 -6.2368598 805
53.661598 -6.2368102 805
54.5415 -6.2367601 805
55.4902 -6.2444501 806
56.301102 -6.23665 805
57.180801 -6.2365999 805
58.060501 -6.2365499 805
58.940102 -6.2364898 805
59.819698 -6.2364402 805
60.699299 -6.2363901 805
61.578899 -6.23633 805
62.458302 -6.23627 805
63.3377 -6.2362099 805
64.217003 -6.2361598 805
65.096298 -6.2361002 805
65.975502 -6.2360401 805
66.771599 -6.22823 804
67.649597 -6.2281699 804
68.527603 -6.2281098 804
69.491898 -6.2357898 805
70.370796 -6.2357302 805
71.161201 -6.22791 804
72.038902 -6.22785 804
73.007301 -6.2355299 805
73.886002 -6.2354598 805
74.764702 -6.2354002 805
75.643303 -6.2353301 805
76.616997 -6.243 806
77.400398 -6.2351899 805
78.278801 -6.2351198 805
79.255501 -6.2427902 806
80.134903 -6.2427201 806
81.1147 -6.2504001 807
81.995102 -6.25032 807
82.875298 -6.2502499 807
83.7556 -6.2501798 807
84.635696 -6.2501001 807
85.5158 -6.25002 807
86.502899 -6.25769 808
87.384003 -6.2576098 808
88.2649 -6.2575402 808
89.145798 -6.2574601 808
90.026604 -6.25738 808
90.907501 -6.2572999 808
91.788002 -6.2572198 808
92.783401 -6.2648802 809
93.780899 -6.2725401 810
94.663498 -6.27246 810
95.545998 -6.2723799 810
96.547699 -6.2800398 811
97.431198 -6.2799501 811
98.435799 -6.2876101 812
99.320297 -6.2875299 812
100.205 -6.2874899 812
101.089 -6.2874098 812
102.099 -6.2950602 813
102.984 -6.29497 813
103.997 -6.3026299 814
104.883 -6.3025398 814
105.769 -6.3024502 814
106.786 -6.3101001 815
107.673 -6.31001 815
108.693 -6.3176599 816
109.581 -6.3175602 816
110.469 -6.3174701 816
111.494 -6.32512 817
112.382 -6.3250198 817
113.41 -6.3326702 818
114.299 -6.3325701 818
115.33 -6.34022 819
116.22 -6.3401198 819
117.111 -6.3400202 819
118.001 -6.3399301 819
119.037 -6.3475699 820
119.928 -6.3474698 820
120.967 -6.3551102 821
121.859 -6.35501 821
122.901 -6.3626499 822
123.794 -6.3625498 822
124.839 -6.3701901 823
125.733 -6.37008 823
126.781 -6.3777199 824
127.676 -6.3776202 824
128.72701 -6.3852601 825
129.623 -6.38515 825
130.67599 -6.3927798 826
131.733 -6.4004202 827
132.63 -6.40031 827
133.689 -6.4079399 828
134.588 -6.4078398 828
135.64999 -6.4154701 829
136.55 -6.41541 829
137.61501 -6.4230399 830
138.51601 -6.4229398 830
139.584 -6.4305601 831
140.485 -6.43045 831
141.55701 -6.4380798 832
142.63 -6.4457102 833
143.70599 -6.45333 834
144.61 -6.4532199 834
145.688 -6.4608498 835
146.769 -6.4684701 836
147.85201 -6.4761 837
148.936 -6.4837198 838
150.02299 -6.4913402 839
150.93201 -6.49123 839
152.022 -6.4988499 840
153.114 -6.5064702 841
154.20799 -6.5140901 842
155.304 -6.5217099 843
156.40199 -6.5293298 844
157.502 -6.5369501 845
158.605 -6.54456 846
159.89799 -6.5599198 848
161.005 -6.5675902 849
21.212601 -5.39009 810
22.0445 -5.37677 808
22.928801 -5.37676 808
23.7836 -5.37009 807
24.6362 -5.36342 806
25.486601 -5.35675 805
26.3675 -5.35673 805
27.2484 -5.35672 805
28.094299 -5.35004 804
28.9741 -5.3500299 804
29.8167 -5.3433499 803
30.733601 -5.3499899 804
31.613199 -5.3499699 804
32.492901 -5.3499498 804
33.372501 -5.3499298 804
34.252102 -5.3498998 804
35.131699 -5.3498802 804
36.011299 -5.3498602 804
36.8908 -5.3498402 804
37.770302 -5.3498101 804
38.6497 -5.3497901 804
39.529202 -5.3497601 804
40.4086 -5.34974 804
41.287899 -5.34971 804
42.167198 -5.3496799 804
43.046501 -5.3496599 804
43.9258 -5.3496299 804
44.805 -5.3495998 804
45.6842 -5.3495698 804
46.505402 -5.3428898 803
47.3834 -5.3428602 803
48.261398 -5.3428202 803
49.139301 -5.3427901 803
50.079498 -5.3494101 804
50.9585 -5.34938 804
51.837399 -5.34935 804
52.716202 -5.3493099 804
53.595001 -5.3492799 804
54.541599 -5.3558998 805
55.421398 -5.3558602 805
56.301201 -5.3558302 805
57.180901 -5.3557901 805
58.0606 -5.3557501 805
58.940201 -5.35572 805
59.819901 -5.35568 805
60.699299 -5.3556399 805
61.5788 -5.3555999 805
62.3806 -5.3489099 804
63.258999 -5.3488698 804
64.137299 -5.3488302 804
65.015503 -5.3487902 804
65.8936 -5.3487401 804
66.771698 -5.3487 804
67.565598 -5.342 803
68.442398 -5.34196 803
69.405602 -5.3485699 804
70.283401 -5.3485298 804
71.161201 -5.3484802 804
72.039001 -5.3484402 804
72.916702 -5.3483901 804
73.794296 -5.34834 804
74.671898 -5.3483 804
75.643402 -5.3548999 805
76.521896 -5.3548498 805
77.400497 -5.3548102 805
78.2789 -5.3547602 805
79.2556 -5.3613601 806
80.135002 -5.36131 806
81.014297 -5.3612599 806
81.893501 -5.3612099 806
82.772697 -5.3611598 806
83.651802 -5.3611102 806
84.530899 -5.3610601 806
85.5159 -5.36765 807
86.395897 -5.3676 807
87.275902 -5.3675499 807
88.155701 -5.3674898 807
89.035599 -5.3674402 807
89.915298 -5.3673801 807
90.907501 -5.37398 808
91.7882 -5.37392 808
92.783501 -5.3805199 809
93.6651 -5.3804598 809
94.663597 -5.3870602 810
95.546097 -5.3870001 810
96.547798 -5.39359 811
97.551399 -5.4001799 812
98.435898 -5.4001198 812
99.320396 -5.4000602 812
100.205 -5.4000101 812
101.214 -5.4066 813
102.099 -5.4065299 813
103.111 -5.4131198 814
103.997 -5.4130602 814
104.883 -5.4130001 814
105.769 -5.41294 814
106.786 -5.4195299 815
107.673 -5.4195199 815
108.694 -5.4260998 816
109.581 -5.4260402 816
110.469 -5.4259801 816
111.494 -5.43256 817
112.382 -5.4324999 817
113.41 -5.4390802 818
114.299 -5.4390101 818
115.189 -5.4389501 818
116.221 -5.4455299 819
117.111 -5.4454699 819
118.001 -5.4454002 819
119.037 -5.4519801 820
119.928 -5.45191 820
120.967 -5.4584899 821
121.859 -5.4584198 821
122.901 -5.4650002 822
123.945 -5.47158 823
124.839 -5.4715099 823
125.886 -5.4780898 824
126.781 -5.4780202 824
127.831 -5.4846001 825
128.72701 -5.48453 825
129.78 -5.4911098 826
130.677 -5.4910402 826
131.733 -5.4976101 827
132.63 -5.49754 827
133.69 -5.5041099 828
134.588 -5.5040398 828
135.64999 -5.5106201 829
136.55 -5.51054 829
137.61501 -5.5171199 830
138.51601 -5.5170398 830
139.584 -5.5236201 831
140.65401 -5.53019 832
141.72701 -5.5367599 833
142.80099 -5.5433302 834
143.70599 -5.5432601 834
144.783 -5.54983 835
145.86301 -5.5564599 836
146.94501 -5.5630298 837
147.85201 -5.5629501 837
148.937 -5.56952 838
150.02299 -5.5760899 839
151.112 -5.5826602 840
152.022 -5.5825801 840
153.114 -5.58915 841
154.39101 -5.6023698 843
155.48801 -5.6089301 844
156.588 -5.6155 845
157.689 -5.6220698 846
158.98 -5.6352801 848
160.086 -5.64185 849
161.384 -5.6550598 851
21.1341 -4.48668 807
21.99 -4.4811201 806
22.872101 -4.4811101 806
23.724701 -4.4755402 805
24.6057 -4.4755301 805
25.454901 -4.4699602 804
26.334801 -4.4699502 804
27.2146 -4.4699402 804
28.0944 -4.4699402 804
28.938101 -4.4643602 803
29.8167 -4.4643502 803
30.6954 -4.4643402 803
31.6133 -4.4698901 804
32.492901 -4.4698801 804
33.372601 -4.4698701 804
34.252201 -4.4698601 804
35.131699 -4.46984 804
36.011299 -4.46983 804
36.8908 -4.46982 804
37.770302 -4.4698 804
38.649799 -4.46979 804
39.529202 -4.46977 804
40.4086 -4.4697599 804
41.287899 -4.4697499 804
42.167301 -4.4697299 804
43.0466 -4.4697099 804
43.9258 -4.4696999 804
44.805 -4.4696798 804
45.6842 -4.4696698 804
46.505402 -4.4640899 803
47.383499 -4.4640698 803
48.261398 -4.4640498 803
49.1394 -4.4640398 803
50.0173 -4.4640198 803
50.9585 -4.4695601 804
51.7729 -4.4639802 803
52.6507 -4.4639602 803
53.5951 -4.4695001 804
54.4739 -4.46948 804
55.3526 -4.46946 804
56.2313 -4.46944 804
57.109901 -4.46942 804
57.988499 -4.4693999 804
58.867001 -4.4693799 804
59.745499 -4.4693599 804
60.623901 -4.4693298 804
61.5023 -4.4693098 804
62.380699 -4.4692898 804
63.259102 -4.4692602 804
64.057503 -4.4636798 803
64.934601 -4.4636598 803
65.811699 -4.4636402 803
66.688698 -4.4636102 803
67.565598 -4.4635901 803
68.442497 -4.4635601 803
69.319298 -4.4635401 803
70.196098 -4.46351 803
71.0728 -4.46349 803
72.039001 -4.4690199 804
72.916702 -4.4689999 804
73.794296 -4.4689698 804
74.671898 -4.4689398 804
75.5494 -4.4689202 804
76.522003 -4.4744501 805
77.400497 -4.4744201 805
78.2789 -4.47439 805
79.2556 -4.4799199 806
80.135002 -4.4798999 806
81.014297 -4.4798698 806
81.893501 -4.4798398 806
82.772797 -4.4798102 806
83.651802 -4.4797802 806
84.530899 -4.4797502 806
85.410004 -4.4797201 806
86.288902 -4.4796901 806
87.275902 -4.48522 807
88.1558 -4.4851899 807
89.145897 -4.4907198 808
90.026703 -4.4906902 808
90.907501 -4.4906602 808
91.901802 -4.4961801 809
92.7836 -4.49615 809
93.780998 -4.5016799 810
94.663597 -4.5016499 810
95.546204 -4.5016198 810
96.547798 -4.5071402 811
97.431297 -4.5071101 811
98.435997 -4.51264 812
99.442703 -4.5181599 813
100.328 -4.5181298 813
101.214 -4.5180898 813
102.225 -4.5236201 814
103.111 -4.5235901 814
103.997 -4.52355 814
104.883 -4.52352 814
105.769 -4.5234799 814
106.786 -4.5290098 815
107.673 -4.5289698 815
108.56 -4.5289402 815
109.581 -4.5344601 816
110.469 -4.53443 816
111.357 -4.53439 816
112.382 -4.5399098 817
113.271 -4.5398798 817
114.299 -4.5454502 818
115.189 -4.5454202 818
116.079 -4.5453801 818
117.111 -4.5509 819
118.002 -4.5508699 819
119.037 -4.5563898 820
119.928 -4.5563502 820
120.967 -4.5618701 821
121.859 -4.5618401 821
122.901 -4.5673599 822
123.945 -4.5728798 823
124.991 -4.5784001 824
125.886 -4.5783601 824
126.935 -4.5838799 825
127.831 -4.5838399 825
128.883 -4.5893602 826
129.78 -4.5893202 826
130.677 -4.5892801 826
131.573 -4.5892501 826
132.63 -4.59477 827
133.69 -4.6002798 828
134.588 -4.6002498 828
135.64999 -4.6057701 829
136.55 -4.6057301 829
137.61501 -4.6112499 830
138.51601 -4.6112099 830
139.584 -4.6167202 831
140.65401 -4.6222401 832
141.72701 -4.6277599 833
142.80099 -4.6332798 834
143.87801 -4.6387901 835
144.783 -4.6387601 835
145.86301 -4.6442699 836
146.94501 -4.6497898 837
148.02901 -4.6553102 838
148.937 -4.6552701 838
150.02299 -4.66078 839
151.112 -4.6662998 840
152.203 -4.6718202 841
153.29601 -4.67733 842
154.39101 -4.6828499 843
155.673 -4.6939201 845
156.77299 -4.69944 846
157.875 -4.7049499 847
159.16701 -4.7160201 849
160.463 -4.72715 851
21.107901 -3.5987699 806
21.9627 -3.5943 805
22.8437 -3.5943 805
23.724701 -3.5943 805
24.5751 -3.5898299 804
25.454901 -3.5898299 804
26.334801 -3.5898299 804
27.1807 -3.5853601 803
28.059401 -3.5853601 803
28.938101 -3.5853601 803
29.8167 -3.5853601 803
30.6954 -3.58535 803
31.5739 -3.58535 803
32.452499 -3.58535 803
33.3311 -3.58534 803
34.209599 -3.58534 803
35.0881 -3.58534 803
35.966499 -3.58534 803
36.844898 -3.58533 803
37.723301 -3.58533 803
38.6017 -3.58533 803
39.48 -3.58532 803
40.4086 -3.5897801 804
41.287998 -3.5897801 804
42.167301 -3.5897801 804
42.993 -3.58531 803
43.871201 -3.5853 803
44.749298 -3.5853 803
45.627399 -3.58529 803
46.505402 -3.58529 803
47.383499 -3.58529 803
48.261398 -3.5852799 803
49.1394 -3.5852799 803
50.0173 -3.5852699 803
50.8951 -3.5852699 803
51.7729 -3.5852599 803
52.6507 -3.5852599 803
53.5285 -3.5852499 803
54.406101 -3.5852499 803
55.3526 -3.58971 804
56.2313 -3.5897 804
57.109901 -3.5897 804
57.988499 -3.58969 804
58.867001 -3.58969 804
59.745499 -3.58968 804
60.624001 -3.58968 804
61.5023 -3.5896699 804
62.380699 -3.5896699 804
63.259102 -3.5896599 804
64.057602 -3.5851901 803
64.934601 -3.5851901 803
65.811699 -3.58518 803
66.688698 -3.58518 803
67.565598 -3.58517 803
68.442497 -3.58516 803
69.319298 -3.58516 803
70.196098 -3.58515 803
71.0728 -3.58515 803
71.949402 -3.58514 803
72.916702 -3.5896001 804
73.794403 -3.5895901 804
74.671898 -3.5895901 804
75.5494 -3.5895801 804
76.427002 -3.5895801 804
77.304398 -3.58957 804
78.2789 -3.5940299 805
79.2556 -3.59849 806
80.135002 -3.59848 806
81.014297 -3.59847 806
81.8936 -3.59847 806
82.772797 -3.59846 806
83.651901 -3.59846 806
84.530899 -3.5984499 806
85.410004 -3.5984399 806
86.288902 -3.5984399 806
87.167801 -3.5984299 806
88.1558 -3.60289 807
89.145897 -3.6073501 808
90.026703 -3.6073401 808
91.019997 -3.6118 809
91.901901 -3.6117899 809
92.8983 -3.61625 810
93.780998 -3.61625 810
94.663597 -3.61624 810
95.546303 -3.61623 810
96.547798 -3.6206901 811
97.431297 -3.6206901 811
98.435997 -3.62515 812
99.320396 -3.62514 812
100.328 -3.6296 813
101.214 -3.62959 813
102.225 -3.6340499 814
103.111 -3.6340499 814
103.997 -3.6340401 814
104.883 -3.6340301 814
105.769 -3.6340301 814
106.786 -3.63849 815
107.673 -3.6384799 815
108.56 -3.6384799 815
109.447 -3.6384699 815
110.469 -3.64293 816
111.357 -3.64292 816
112.382 -3.6473801 817
113.271 -3.6473801 817
114.299 -3.65184 818
115.189 -3.65183 818
116.079 -3.65183 818
117.111 -3.6562901 819
118.002 -3.65628 819
119.037 -3.6607399 820
119.928 -3.6607399 820
120.967 -3.6652 821
121.859 -3.66519 821
122.901 -3.6696501 822
123.945 -3.6741099 823
124.839 -3.6741099 823
125.886 -3.67857 824
126.935 -3.6830299 825
127.986 -3.6875401 826
128.883 -3.6875401 826
129.78 -3.6875401 826
130.677 -3.68753 826
131.733 -3.6919899 827
132.63 -3.6919899 827
133.69 -3.69645 828
134.588 -3.69645 828
135.64999 -3.7009101 829
136.55 -3.7009101 829
137.61501 -3.7053699 830
138.683 -3.70983 831
139.752 -3.7142999 832
140.82401 -3.71876 833
141.897 -3.7232201 834
142.97301 -3.72768 835
143.87801 -3.72768 835
144.957 -3.7321401 836
146.037 -3.7366099 837
147.12 -3.74107 838
148.02901 -3.74107 838
149.114 -3.7455299 839
150.202 -3.75 840
151.29201 -3.7544601 841
152.384 -3.75892 842
153.478 -3.7633901 843
154.575 -3.7678499 844
155.673 -3.77232 845
156.95799 -3.78125 847
158.062 -3.7857101 848
18.438499 -2.7130301 805
19.319599 -2.7130401 805
20.2006 -2.7130401 805
21.0555 -2.7096801 804
21.9354 -2.7096801 804
22.8153 -2.7096801 804
23.6952 -2.7096901 804
24.5445 -2.70632 803
25.4233 -2.7063301 803
26.302 -2.7063301 803
27.1807 -2.7063401 803
28.0245 -2.70297 802
28.9021 -2.70298 802
29.7796 -2.7029901 802
30.6954 -2.7063601 803
31.534599 -2.7030001 802
32.412102 -2.7030001 802
33.2896 -2.7030101 802
34.167 -2.7030201 802
35.044399 -2.7030201 802
35.9217 -2.7030301 802
36.799099 -2.7030399 802
37.676399 -2.7030399 802
38.5536 -2.7030499 802
39.430901 -2.7030599 802
40.358299 -2.70643 803
41.236599 -2.70644 803
42.114799 -2.70645 803
42.993 -2.70646 803
43.816601 -2.7031 802
44.6936 -2.7031 802
45.570599 -2.70311 802
46.447498 -2.70312 802
47.324501 -2.70313 802
48.201302 -2.70314 802
49.078201 -2.70315 802
49.955002 -2.70316 802
50.831699 -2.7031701 802
51.708401 -2.7031801 802
52.585098 -2.7031901 802
53.4617 -2.7032001 802
54.406101 -2.7065799 803
55.283798 -2.7065899 803
56.1614 -2.7066 803
57.038799 -2.70661 803
57.988499 -2.70999 804
58.867001 -2.71 804
59.745499 -2.7100101 804
60.623901 -2.7100201 804
61.5023 -2.7100401 804
62.303101 -2.7066801 803
63.180401 -2.7066901 803
64.057602 -2.7067001 803
64.853798 -2.7033401 802
65.729698 -2.7033501 802
66.605598 -2.7033701 802
67.565598 -2.7067499 803
68.442497 -2.7067599 803
69.319298 -2.70678 803
70.196098 -2.70679 803
71.0728 -2.7068 803
71.949402 -2.70682 803
72.825996 -2.70683 803
73.702599 -2.7068501 803
74.579002 -2.7068601 803
75.5494 -2.7102499 804
76.426903 -2.7102599 804
77.304298 -2.7102799 804
78.181702 -2.71029 804
79.157303 -2.71368 805
80.035599 -2.71369 805
80.913803 -2.7137101 805
81.792 -2.7137301 805
82.772797 -2.7171099 806
83.651901 -2.7171299 806
84.530899 -2.71715 806
85.410004 -2.71716 806
86.288902 -2.71718 806
87.167801 -2.7172 806
88.1558 -2.7205901 807
89.035599 -2.7206099 807
90.026703 -2.724 808
91.019997 -2.7273901 809
91.901901 -2.7274001 809
92.8983 -2.7307899 810
93.780998 -2.7308099 810
94.663597 -2.73083 810
95.546204 -2.73085 810
96.547798 -2.7342401 811
97.431297 -2.7342601 811
98.435997 -2.7376599 812
99.320396 -2.73768 812
100.328 -2.74107 813
101.214 -2.7410901 813
102.225 -2.7444799 814
103.111 -2.7445099 814
103.997 -2.74453 814
104.883 -2.74455 814
105.769 -2.74457 814
106.786 -2.7479701 815
107.673 -2.7479899 815
108.56 -2.7480099 815
109.447 -2.74804 815
110.469 -2.75143 816
111.357 -2.7514601 816
112.382 -2.7548499 817
113.271 -2.75488 817
114.299 -2.75828 818
115.189 -2.7583001 818
116.079 -2.7583301 818
117.111 -2.7617199 819
118.146 -2.76512 820
119.037 -2.7651501 820
119.928 -2.7651801 820
120.967 -2.76858 821
121.859 -2.7686 821
122.901 -2.7720001 822
123.945 -2.7753999 823
124.991 -2.77881 824
125.886 -2.7788301 824
126.935 -2.7822399 825
127.831 -2.7822599 825
128.883 -2.78567 826
129.937 -2.7890699 827
130.83501 -2.7890999 827
131.733 -2.78913 827
132.791 -2.7925401 828
133.69 -2.7925701 828
134.75101 -2.79597 829
135.64999 -2.796 829
136.715 -2.7994101 830
137.61501 -2.7994399 830
138.683 -2.80285 831
139.752 -2.8062501 832
140.82401 -2.80966 833
141.897 -2.8130701 834
142.97301 -2.8164799 835
144.05 -2.81989 836
144.957 -2.8199201 836
146.037 -2.8233299 837
147.12 -2.82674 838
148.205 -2.8301499 839
149.114 -2.8301899 839
150.202 -2.8336 840
151.29201 -2.8370099 841
152.384 -2.84042 842
153.66 -2.8472099 844
154.758 -2.85062 845
155.85699 -2.8540299 846
156.95799 -2.8575001 847
158.248 -2.86429 849
16.6556 -1.82947 804
17.535601 -1.82947 804
18.3927 -1.8272099 803
19.271601 -1.82722 803
20.150499 -1.82723 803
21.003099 -1.82496 802
21.880899 -1.82497 802
22.7586 -1.82498 802
23.636299 -1.82499 802
24.514 -1.825 802
25.3916 -1.82502 802
26.302 -1.8273 803
27.1469 -1.82504 802
28.0245 -1.82505 802
28.902 -1.82507 802
29.7796 -1.82508 802
30.657101 -1.8250901 802
31.534599 -1.82511 802
32.412102 -1.82512 802
33.289501 -1.82514 802
34.167 -1.82515 802
35.0443 -1.82517 802
35.9217 -1.8251899 802
36.799 -1.8252 802
37.6763 -1.82522 802
38.5536 -1.82524 802
39.430901 -1.82526 802
40.308102 -1.82528 802
41.1852 -1.8253 802
42.062401 -1.82532 802
42.939499 -1.82533 802
43.816502 -1.82535 802
44.6936 -1.82538 802
45.570599 -1.8254 802
46.447498 -1.82542 802
47.324402 -1.82544 802
48.201302 -1.82546 802
49.078098 -1.82548 802
49.955002 -1.82551 802
50.831799 -1.8255301 802
51.7085 -1.82556 802
52.585201 -1.82558 802
53.4617 -1.8256 802
54.338402 -1.8256299 802
55.283798 -1.82793 803
56.161301 -1.82796 803
57.038799 -1.82798 803
57.916302 -1.82801 803
58.867001 -1.83031 804
59.745499 -1.83034 804
60.623901 -1.8303699 804
61.5023 -1.8304 804
62.3032 -1.82815 803
63.180401 -1.82818 803
63.977699 -1.82593 802
64.853699 -1.82596 802
65.729698 -1.82599 802
66.605598 -1.82602 802
67.4814 -1.8260601 802
68.442497 -1.82836 803
69.319298 -1.8284 803
70.108597 -1.8261499 802
70.984299 -1.82619 802
71.949402 -1.8285 803
72.825996 -1.82853 803
73.702499 -1.82856 803
74.579002 -1.8286 803
75.455498 -1.82863 803
76.427002 -1.83095 804
77.304298 -1.8309799 804
78.181702 -1.83102 804
79.058899 -1.8310601 804
80.035599 -1.83337 805
80.913803 -1.83341 805
81.791901 -1.83345 805
82.669998 -1.83349 805
83.651802 -1.8358001 806
84.530899 -1.83584 806
85.410004 -1.83588 806
86.288902 -1.83593 806
87.167801 -1.83597 806
88.1558 -1.83829 807
89.035599 -1.83833 807
90.026703 -1.84065 808
90.9076 -1.84069 808
91.901802 -1.8430099 809
92.7836 -1.84306 809
93.780998 -1.8453799 810
94.663597 -1.84543 810
95.546097 -1.84547 810
96.547798 -1.8478 811
97.431297 -1.84784 811
98.435997 -1.85017 812
99.320396 -1.85021 812
100.328 -1.85254 813
101.214 -1.85259 813
102.225 -1.85492 814
103.111 -1.85497 814
103.997 -1.85502 814
104.883 -1.85507 814
105.769 -1.8551199 814
106.655 -1.85517 814
107.673 -1.8575 815
108.56 -1.85755 815
109.447 -1.8576 815
110.469 -1.8599401 816
111.357 -1.85999 816
112.382 -1.8623199 817
113.271 -1.86238 817
114.299 -1.86471 818
115.189 -1.8647701 818
116.079 -1.86483 818
117.111 -1.86716 819
118.146 -1.8695 820
119.037 -1.86956 820
119.928 -1.86962 820
120.967 -1.87196 821
121.859 -1.87202 821
122.901 -1.87436 822
123.945 -1.8767 823
124.991 -1.87904 824
126.038 -1.88138 825
126.935 -1.88144 825
127.986 -1.88379 826
128.883 -1.88385 826
129.937 -1.8861901 827
130.83501 -1.88626 827
131.892 -1.8886 828
132.791 -1.88867 828
133.851 -1.8910201 829
134.75101 -1.89108 829
135.814 -1.89343 830
136.715 -1.8935 830
137.78101 -1.8958499 831
138.683 -1.89592 831
139.752 -1.89827 832
140.823 -1.90062 833
141.897 -1.90297 834
142.97301 -1.9053299 835
144.05 -1.90768 836
145.13 -1.91004 837
146.21201 -1.91239 838
147.29601 -1.91475 839
148.382 -1.9171 840
149.29201 -1.9171799 840
150.381 -1.91954 841
151.472 -1.9219 842
152.565 -1.92426 843
153.66 -1.92662 844
154.758 -1.92898 845
156.041 -1.93362 847
157.144 -1.93599 848
158.435 -1.94063 850
15.756 -0.948084 803
16.614201 -0.94691598 802
17.492001 -0.94692898 802
18.346901 -0.94576102 801
19.2236 -0.94577497 801
20.1003 -0.94578999 801
20.9769 -0.94580603 801
21.8536 -0.945822 801
22.7302 -0.94583797 801
23.6068 -0.94585598 801
24.4834 -0.94587398 801
25.3599 -0.94589198 801
26.269199 -0.94709301 802
27.1469 -0.94711298 802
28.0245 -0.947133 802
28.902 -0.94715399 802
29.7796 -0.94717598 802
30.657101 -0.94719899 802
31.534599 -0.94722199 802
32.412102 -0.94724602 802
33.248001 -0.94608903 801
34.124298 -0.946114 801
35.000599 -0.94613999 801
35.8769 -0.94616699 801
36.753101 -0.94619399 801
37.629299 -0.94622099 801
38.505501 -0.94625002 801
39.381699 -0.94627899 801
40.257801 -0.94630802 801
41.1339 -0.946338 801
42.009899 -0.94636899 801
42.885899 -0.946401 801
43.761902 -0.94643301 801
44.637798 -0.94646603 801
45.513699 -0.9465 801
46.389599 -0.94653398 801
47.2654 -0.94656903 801
48.141201 -0.94660401 801
49.016899 -0.94664001 801
49.892601 -0.94667703 801
50.768299 -0.946715 801
51.643902 -0.94675303 801
52.519501 -0.94679099 801
53.395 -0.94683099 801
54.270599 -0.94687098 801
55.214901 -0.94809401 802
56.091301 -0.94813502 802
56.9678 -0.94817698 802
57.916302 -0.94940197 803
58.793701 -0.94944501 803
59.6712 -0.949489 803
60.5485 -0.949534 803
61.4258 -0.949579 803
62.303101 -0.94962502 803
63.1017 -0.94849002 802
63.977699 -0.94853699 802
64.772797 -0.947402 801
65.647697 -0.947451 801
66.605598 -0.94868302 802
67.4814 -0.94873297 802
68.357201 -0.94878298 802
69.232903 -0.948834 802
70.108597 -0.94888598 802
70.9842 -0.94893903 802
71.859802 -0.94899201 802
72.735298 -0.94904602 802
73.610703 -0.94910002 802
74.486099 -0.94915599 802
75.361504 -0.949211 802
76.331902 -0.95045203 803
77.304199 -0.951693 804
78.181602 -0.95175099 804
79.058899 -0.95180899 804
80.0355 -0.95305198 805
80.913696 -0.95311302 805
81.791901 -0.95317298 805
82.669998 -0.95323497 805
83.547997 -0.95329702 805
84.5308 -0.95454401 806
85.409897 -0.95460701 806
86.288902 -0.95467103 806
87.167702 -0.95473599 806
88.155701 -0.95598602 807
89.0355 -0.95605201 807
90.026703 -0.957304 808
90.907501 -0.957371 808
91.901802 -0.95862502 809
92.783501 -0.95869398 809
93.780899 -0.95994902 810
94.663498 -0.96001899 810
95.546097 -0.96008998 810
96.547699 -0.961348 811
97.431198 -0.96142 811
98.435898 -0.96267903 812
99.320297 -0.962753 812
100.205 -0.96282798 812
101.214 -0.96408898 813
102.224 -0.96535099 814
103.111 -0.96542799 814
103.997 -0.96550602 814
104.883 -0.96558398 814
105.769 -0.96566302 814
106.655 -0.96574301 814
107.673 -0.96701002 815
108.56 -0.96709102 815
109.581 -0.96835899 816
110.469 -0.96844202 816
111.357 -0.96852499 816
112.382 -0.96979702 817
113.271 -0.969881 817
114.299 -0.97115397 818
115.189 -0.97123998 818
116.079 -0.97132701 818
117.111 -0.97260201 819
118.145 -0.97387898 820
119.037 -0.97396803 820
120.074 -0.97524601 821
120.967 -0.97533703 821
122.008 -0.97661602 822
122.901 -0.97670901 822
123.945 -0.97798997 823
124.99 -0.97927201 824
126.038 -0.980555 825
127.088 -0.981839 826
127.986 -0.98193598 826
129.039 -0.98322099 827
129.937 -0.98331898 827
130.993 -0.98460698 828
131.892 -0.98470598 828
132.951 -0.98599601 829
133.851 -0.98609602 829
134.91299 -0.98738801 830
135.814 -0.98749 830
136.879 -0.988783 831
137.78101 -0.98888701 831
138.849 -0.99018198 832
139.92 -0.99147803 833
140.992 -0.99277401 834
142.067 -0.99407202 835
143.144 -0.99537098 836
144.05 -0.99548 836
145.13 -0.99677998 837
146.21201 -0.99808198 838
147.29601 -0.99938399 839
148.382 -1.00069 840
149.47 -1.00199 841
150.56 -1.0033 842
151.65199 -1.0046 843
152.746 -1.00591 844
153.842 -1.00722 845
155.12399 -1.00972 847
156.22501 -1.01103 848
13.1191 -0.068943501 803
13.9806 -0.068871498 802
14.8585 -0.068886302 802
15.7167 -0.068815999 801
16.593399 -0.068832599 801
17.4484 -0.068764001 800
18.3011 -0.068696402 799
19.1756 -0.068715602 799
20.049999 -0.0687356 799
20.9245 -0.068756603 799
21.8263 -0.068864502 800
22.701799 -0.068887301 800
23.577299 -0.068911001 800
24.452801 -0.068935603 800
25.3599 -0.069047302 801
26.2365 -0.069073699 801
27.146799 -0.069187202 802
28.024401 -0.069215402 802
28.902 -0.069244497 802
29.779499 -0.069274597 802
30.657101 -0.069305502 802
31.534599 -0.069337301 802
32.411999 -0.069370002 802
33.248001 -0.069316998 801
34.124298 -0.069351502 801
35.000599 -0.069386803 801
35.8321 -0.069336399 800
36.753101 -0.069460198 801
37.629299 -0.069498204 801
38.505501 -0.0695372 801
39.3325 -0.069490097 800
40.2075 -0.0695308 800
41.0825 -0.069572397 800
41.957401 -0.069614798 800
42.832298 -0.069658101 800
43.707199 -0.069702402 800
44.582001 -0.0697475 800
45.456902 -0.0697935 800
46.3895 -0.0699277 801
47.2654 -0.0699756 801
48.141102 -0.070024297 801
49.016899 -0.070073999 801
49.892601 -0.070124499 801
50.768299 -0.070175901 801
51.643902 -0.070228301 801
52.519402 -0.070281498 801
53.395 -0.070335597 801
54.2705 -0.070390597 801
55.146 -0.070446499 801
56.091301 -0.070591301 802
56.967701 -0.070648998 802
57.844101 -0.070707701 802
58.720501 -0.070767201 802
59.596802 -0.070827603 802
60.473 -0.070888899 802
61.349201 -0.070951097 802
62.225498 -0.0710143 802
63.101501 -0.071078204 802
63.977699 -0.071143098 802
64.772797 -0.071120098 801
65.647598 -0.071186699 801
66.522499 -0.071254201 801
67.4813 -0.071411602 802
68.357101 -0.0714809 802
69.232903 -0.071551099 802
70.108498 -0.0716222 802
70.895699 -0.0716049 801
71.859703 -0.071767099 802
72.735199 -0.071840897 802
73.610603 -0.071915597 802
74.486 -0.071991101 802
75.361504 -0.072067603 802
76.236702 -0.072145 802
77.208099 -0.072313197 803
78.181602 -0.072482601 804
79.0588 -0.072562799 804
79.935997 -0.072643898 804
80.813202 -0.0727259 804
81.690201 -0.072808698 804
82.5672 -0.072892502 804
83.547897 -0.073067904 805
84.425903 -0.0731536 805
85.303902 -0.073240101 805
86.288803 -0.073418602 806
87.167603 -0.073507003 806
88.155602 -0.073687702 807
89.0354 -0.073778003 807
90.026604 -0.073960699 808
90.907303 -0.0740529 808
91.901703 -0.074237801 809
92.783401 -0.074331902 809
93.7808 -0.074518897 810
94.663399 -0.074614897 810
95.545998 -0.0747118 810
96.428596 -0.074809603 810
97.431099 -0.0750008 811
98.314598 -0.075100496 811
99.197899 -0.075201102 811
100.205 -0.075395502 812
101.089 -0.075498 812
102.099 -0.075694501 813
102.984 -0.075798899 813
103.869 -0.075904198 813
104.883 -0.076103903 814
105.769 -0.076211102 814
106.655 -0.0763193 814
107.673 -0.076522201 815
108.56 -0.076632299 815
109.581 -0.076837398 816
110.469 -0.076949403 816
111.493 -0.0771567 817
112.382 -0.077270597 817
113.41 -0.0774801 818
114.439 -0.077690803 819
115.33 -0.077807702 819
116.22 -0.077925503 819
117.111 -0.078044102 819
118.145 -0.078259103 820
119.182 -0.078475296 821
120.074 -0.078597002 821
121.114 -0.078815401 822
122.007 -0.078938998 822
123.05 -0.079159699 823
124.095 -0.0793816 824
125.142 -0.0796047 825
126.038 -0.079732403 825
127.088 -0.079957701 826
127.985 -0.080087297 826
129.039 -0.080314897 827
129.937 -0.080446497 827
130.83501 -0.080578998 827
131.892 -0.080810003 828
132.951 -0.0810422 829
134.01199 -0.081275597 830
134.91299 -0.081356898 830
135.978 -0.0815925 831
136.879 -0.081731103 831
137.94701 -0.081969 832
138.849 -0.0821096 832
139.92 -0.082349896 833
140.992 -0.0825914 834
142.067 -0.082834199 835
143.144 -0.083078198 836
144.222 -0.083323501 837
145.13 -0.0834703 837
146.386 -0.083817802 839
147.47099 -0.084066898 840
148.558 -0.0843172 841
149.46899 -0.084468402 841
150.73801 -0.084821701 843
151.832 -0.0850759 844
152.927 -0.085331298 845
154.024 -0.085588001 846
155.30701 -0.085947402 848
12.2401 0.81017798 803
13.1028 0.80915302 802
13.9632 0.80812597 801
14.8214 0.80709898 800
15.6971 0.80707902 800
16.552 0.80605 799
17.4265 0.80602801 799
18.301001 0.806005 799
19.175501 0.80598003 799
20.049999 0.80595499 799
20.9245 0.80592799 799
21.798901 0.80589998 799
22.673401 0.80587202 799
23.577299 0.80685002 800
24.452801 0.80681902 800
25.328199 0.80678701 800
26.236401 0.80776203 801
27.113001 0.80772698 801
28.024401 0.80870003 802
28.902 0.80866301 802
29.779499 0.80862498 802
30.618799 0.80757701 801
31.495199 0.80753702 801
32.371601 0.807495 801
33.247898 0.80745202 801
34.124298 0.80740899 801
35.0005 0.80736399 801
35.832001 0.80631 800
36.707199 0.80626303 800
37.629299 0.80722201 801
38.505402 0.80717301 801
39.332401 0.80611402 800
40.207401 0.80606198 800
41.082401 0.80601001 800
41.957401 0.80595601 800
42.832298 0.80590099 800
43.707199 0.80584401 800
44.582001 0.80578703 800
45.456799 0.80572802 800
46.3895 0.80667597 801
47.265301 0.806615 801
48.141102 0.80655301 801
49.0168 0.80649 801
49.892502 0.80642498 801
50.7682 0.80636001 801
51.643902 0.80629301 801
52.519402 0.80622602 801
53.394901 0.80615699 801
54.2705 0.80608702 801
55.145901 0.80601603 801
56.021301 0.80594403 801
56.967602 0.806876 802
57.844002 0.80680197 802
58.720402 0.80672598 802
59.596699 0.80664903 802
60.473 0.80657101 802
61.349201 0.80649197 802
62.225399 0.80641198 802
63.101501 0.80633098 802
63.9776 0.80624801 802
64.772697 0.80515897 801
65.647598 0.80507499 801
66.5224 0.80498898 801
67.397102 0.80490202 801
68.357002 0.80581897 802
69.232803 0.80572999 802
70.108398 0.80563903 802
70.895599 0.80454302 801
71.859596 0.80545503 802
72.7351 0.80536199 802
73.610497 0.80526602 802
74.486 0.80517101 802
75.361298 0.80507398 802
76.236603 0.80497599 802
77.1119 0.80487603 802
78.084198 0.80577898 803
79.058701 0.80668098 804
79.935898 0.80657798 804
80.813004 0.80647397 804
81.690102 0.80636901 804
82.567101 0.80626303 804
83.444 0.80615503 804
84.425797 0.80704898 805
85.303802 0.80694002 805
86.181602 0.80682898 805
87.167503 0.80771899 806
88.155502 0.808608 807
89.035301 0.80849397 807
90.026497 0.80937999 808
90.907204 0.80926299 808
91.901604 0.81014597 809
92.783302 0.810027 809
93.780701 0.81090802 810
94.6633 0.81078702 810
95.545998 0.810664 810
96.428497 0.81054002 810
97.431 0.81141597 811
98.314499 0.81129003 811
99.1978 0.81116301 811
100.081 0.81103402 811
101.089 0.81190503 812
101.973 0.81177402 812
102.857 0.81164199 812
103.869 0.812509 813
104.754 0.812374 813
105.769 0.81323802 814
106.655 0.81310201 814
107.673 0.81396198 815
108.56 0.813824 815
109.581 0.81468201 816
110.469 0.81454098 816
111.493 0.81539601 817
112.52 0.81625003 818
113.548 0.81710303 819
114.439 0.816957 819
115.33 0.81681001 819
116.22 0.816661 819
117.254 0.817509 820
118.289 0.81835401 821
119.182 0.81825697 821
120.221 0.81910098 822
121.114 0.818946 822
122.156 0.81978601 823
123.05 0.81963003 823
124.095 0.820467 824
125.142 0.82130301 825
126.191 0.82213801 826
127.088 0.82197601 826
128.14 0.82280803 827
129.03799 0.822644 827
130.09399 0.82347298 828
130.993 0.82330602 828
131.892 0.82313901 828
132.951 0.823964 829
134.01199 0.82478702 830
135.075 0.82560998 831
135.97701 0.82543701 831
137.04401 0.82625598 832
137.946 0.82608098 832
139.01601 0.82689703 833
140.088 0.827712 834
141.161 0.82852501 835
142.237 0.829337 836
143.315 0.83014798 837
144.395 0.83095598 838
145.30299 0.830773 838
146.386 0.83157802 839
147.647 0.83337402 841
148.735 0.834176 842
149.647 0.833987 842
150.91701 0.83577698 844
152.011 0.83657497 845
153.289 0.83836102 847
154.388 0.83915597 848
11.347 1.6872 802
12.2096 1.6850801 801
13.0701 1.68295 800
13.9457 1.68293 800
14.8029 1.68081 799
15.6774 1.6807801 799
16.5313 1.67865 798
17.404699 1.67863 798
18.278099 1.6786 798
19.151501 1.67857 798
20.0249 1.67854 798
20.8983 1.67851 798
21.771601 1.67847 798
22.645 1.67844 798
23.518299 1.6784 798
24.422199 1.68047 799
25.328199 1.68253 800
26.2036 1.68249 800
27.1129 1.68455 801
27.989401 1.68451 801
28.8659 1.68446 801
29.7423 1.68442 801
30.5805 1.6822701 800
31.455799 1.68222 800
32.3311 1.68217 800
33.206402 1.68212 800
34.0816 1.68206 800
34.956799 1.6820101 800
35.832001 1.68195 800
36.7071 1.6819 800
37.582199 1.6818399 800
38.457298 1.68178 800
39.332401 1.68172 800
40.157101 1.6795501 799
41.030998 1.67949 799
41.9049 1.67942 799
42.778702 1.67935 799
43.7071 1.68139 800
44.581902 1.68132 800
45.456699 1.68125 800
46.3894 1.68328 801
47.265202 1.6832 801
48.140999 1.68313 801
49.0168 1.68305 801
49.892502 1.68297 801
50.768101 1.6828901 801
51.6437 1.6828099 801
52.4538 1.68063 800
53.328201 1.68055 800
54.202599 1.68046 800
55.077 1.68037 800
56.021198 1.68239 801
56.8965 1.6823 801
57.771801 1.68221 801
58.647099 1.68212 801
59.522301 1.6820199 801
60.397499 1.6819299 801
61.349098 1.68393 802
62.2253 1.68383 802
63.0228 1.68164 801
63.897701 1.68154 801
64.772598 1.68143 801
65.647499 1.68133 801
66.522301 1.6812299 801
67.397003 1.68112 801
68.271698 1.68102 801
69.1464 1.68091 801
70.020897 1.6808 801
70.8955 1.6806901 801
71.859497 1.68267 802
72.735001 1.68256 802
73.610497 1.6824501 802
74.485901 1.68233 802
75.361198 1.68221 802
76.236504 1.68209 802
77.207901 1.68407 803
78.084099 1.6839499 803
79.058601 1.68592 804
79.935799 1.6858 804
80.812897 1.68567 804
81.791603 1.68764 805
82.669701 1.68751 805
83.547699 1.68738 805
84.425697 1.68725 805
85.303703 1.68712 805
86.288498 1.68908 806
87.167397 1.68894 806
88.155403 1.6909 807
89.035202 1.69076 807
90.026299 1.6927201 808
90.907204 1.69258 808
91.901497 1.69453 809
92.783203 1.69438 809
93.780602 1.69633 810
94.6632 1.69618 810
95.663803 1.69813 811
96.547401 1.69798 811
97.430901 1.69783 811
98.314301 1.69768 811
99.32 1.69962 812
100.204 1.69946 812
101.089 1.6993001 812
102.099 1.7012399 813
102.984 1.70108 813
103.869 1.70092 813
104.883 1.70285 814
105.769 1.70268 814
106.786 1.70461 815
107.673 1.70444 815
108.693 1.70637 816
109.581 1.70625 816
110.604 1.7081701 817
111.493 1.7079999 817
112.519 1.70992 818
113.548 1.71183 819
114.439 1.71166 819
115.329 1.71148 819
116.22 1.7113 819
117.254 1.71321 820
118.289 1.7151099 821
119.182 1.7149301 821
120.22 1.71684 822
121.261 1.71874 823
122.156 1.71855 823
123.199 1.72045 824
124.095 1.72026 824
125.142 1.72215 825
126.191 1.72405 826
127.088 1.72385 826
128.14 1.72574 827
129.194 1.72763 828
130.093 1.72743 828
130.992 1.72723 828
131.89101 1.72703 828
132.951 1.72891 829
134.01199 1.73079 830
135.075 1.7326699 831
136.14101 1.73455 832
137.04401 1.73434 832
138.112 1.73621 833
139.01601 1.7359999 833
140.08701 1.73787 834
141.161 1.73974 835
142.237 1.7416 836
143.315 1.74347 837
144.394 1.74533 838
145.476 1.74719 839
146.56 1.74905 840
147.646 1.75091 841
148.73399 1.7527699 842
149.825 1.75468 843
151.09599 1.75861 845
152.19099 1.76046 846
10.443 2.55883 800
11.3187 2.55881 800
12.1791 2.5555899 799
13.0537 2.5555699 799
13.9283 2.5555401 799
14.7843 2.55232 798
15.6382 2.5490899 797
16.5105 2.5490601 797
17.382799 2.5490301 797
18.255199 2.549 797
19.127501 2.54896 797
19.9998 2.5489299 797
20.872101 2.5488901 797
21.744301 2.5488501 797
22.6166 2.54881 797
23.518299 2.55197 798
24.3915 2.5519199 798
25.296499 2.5550699 799
26.170799 2.5550301 799
27.0452 2.55498 799
27.954399 2.55812 800
28.8298 2.5580699 800
29.7052 2.5580201 800
30.5805 2.55796 800
31.455799 2.5579 800
32.3311 2.5578401 800
33.206299 2.55778 800
34.0816 2.5577199 800
34.956799 2.5576601 800
35.831902 2.55759 800
36.7071 2.5575199 800
37.582199 2.5574501 800
38.457199 2.55738 800
39.332298 2.5573101 800
40.157001 2.55404 799
41.030899 2.5539701 799
41.9048 2.55389 799
42.778599 2.5538099 799
43.652401 2.55373 799
44.5261 2.5536499 799
45.399799 2.55357 799
46.331402 2.55668 800
47.2062 2.5565901 800
48.080799 2.5565 800
48.955502 2.5564101 800
49.830101 2.55632 800
50.704601 2.5562201 800
51.579201 2.5561299 800
52.453701 2.55603 800
53.261398 2.5527401 799
54.1348 2.55264 799
55.007999 2.5525401 799
55.951199 2.55563 800
56.8964 2.5587201 801
57.771702 2.55861 801
58.646999 2.5585101 801
59.447899 2.5552001 800
60.397499 2.55829 801
61.272598 2.5581701 801
62.147598 2.5580599 801
63.022598 2.55794 801
63.897598 2.5578301 801
64.772499 2.5577099 801
65.565399 2.55439 800
66.522202 2.5574601 801
67.396896 2.5573399 801
68.271599 2.55721 801
69.146202 2.55709 801
70.020798 2.5569601 801
70.895302 2.5568299 801
71.859398 2.55989 802
72.734901 2.5597601 802
73.610298 2.5596199 802
74.485703 2.55948 802
75.361 2.55935 802
76.236397 2.5592101 802
77.207603 2.5622599 803
78.084 2.5621099 803
79.058502 2.56516 804
79.935699 2.5650101 804
80.812798 2.5648601 804
81.791496 2.5678999 805
82.669601 2.56775 805
83.5476 2.5676 805
84.425499 2.56745 805
85.4095 2.5704801 806
86.288399 2.5703199 806
87.275398 2.57335 807
88.155296 2.57319 807
89.035004 2.57303 807
89.914803 2.57286 807
90.906898 2.5758801 808
91.787697 2.5757201 808
92.782997 2.5787399 809
93.780403 2.5817499 810
94.663002 2.5815799 810
95.663498 2.58459 811
96.547203 2.58442 811
97.430702 2.58424 811
98.314102 2.58406 811
99.319801 2.58706 812
100.204 2.58688 812
101.213 2.58988 813
102.098 2.5897 813
102.984 2.58957 813
103.869 2.58938 813
104.883 2.59237 814
105.899 2.59536 815
106.786 2.59517 815
107.805 2.59816 816
108.693 2.59796 816
109.715 2.60095 817
110.604 2.60075 817
111.629 2.60373 818
112.519 2.6035299 818
113.548 2.6064999 819
114.439 2.6063001 819
115.329 2.6060901 819
116.22 2.60588 819
117.396 2.61203 821
118.289 2.61182 821
119.181 2.6115999 821
120.22 2.6145699 822
121.114 2.6143501 822
122.304 2.6204901 824
123.199 2.62027 824
124.245 2.62322 825
125.142 2.6229999 825
126.191 2.6259501 826
127.088 2.62572 826
128.14 2.62867 827
129.194 2.6316199 828
130.25 2.6345601 829
131.14999 2.63433 829
132.05 2.6340899 829
132.95 2.6338501 829
134.01199 2.63679 830
135.075 2.63973 831
136.14101 2.6426599 832
137.20799 2.6455901 833
138.112 2.64534 833
139.18201 2.6482699 834
140.255 2.6512499 835
141.33 2.65418 836
142.407 2.6571 837
143.48599 2.6600201 838
144.56599 2.66293 839
145.649 2.6658499 840
146.73399 2.6687601 841
147.82201 2.67167 842
148.911 2.6745801 843
150.002 2.67749 844
151.274 2.6835699 846
152.371 2.68647 847
10.4299 3.4303501 799
11.2903 3.4260399 798
12.1638 3.4260099 798
13.0373 3.4259901 798
13.8934 3.42167 797
14.7658 3.4216399 797
15.6185 3.41731 796
16.489799 3.41728 796
17.361 3.4172399 796
18.232201 3.4172001 796
19.103399 3.41717 796
19.9746 3.41712 796
20.8458 3.4170799 796
21.716999 3.4170401 796
22.616501 3.4212799 797
23.488701 3.4212301 797
24.3915 3.4254701 798
25.264799 3.42542 798
26.170799 3.4296601 799
27.045099 3.4296 799
27.919399 3.4295399 799
28.793699 3.4294801 799
29.705099 3.4337101 800
30.5804 3.43365 800
31.4557 3.4335799 800
32.331001 3.4335201 800
33.206299 3.43344 800
34.081501 3.4333701 800
34.956699 3.4333 800
35.831902 3.4332199 800
36.707001 3.4331501 800
37.5821 3.4330699 800
38.457199 3.4329901 800
39.2831 3.4286101 799
40.157001 3.42853 799
41.0308 3.4284401 799
41.904701 3.42835 799
42.7785 3.4282601 799
43.652302 3.42817 799
44.526001 3.4280801 799
45.3997 3.4279799 799
46.331299 3.4321699 800
47.2061 3.43207 800
48.0807 3.4319699 800
48.955399 3.43187 800
49.830002 3.4317601 800
50.704601 3.4316499 800
51.514599 3.4272599 799
52.388 3.42715 799
53.261299 3.4270301 799
54.134701 3.4269199 799
55.0079 3.4268 799
55.8811 3.4266801 799
56.825298 3.43085 800
57.699501 3.4307301 800
58.6469 3.43489 801
59.4478 3.43048 800
60.321899 3.4303501 800
61.2724 3.43451 801
62.147499 3.4343801 801
63.022499 3.4342501 801
63.897499 3.4341099 801
64.7724 3.43397 801
65.647202 3.43384 801
66.522003 3.4337001 801
67.396797 3.4335499 801
68.2715 3.4334099 801
69.146103 3.43326 801
70.020699 3.43311 801
70.895203 3.43296 801
71.859299 3.4370999 802
72.734703 3.43695 802
73.610199 3.43679 802
74.485603 3.43663 802
75.455002 3.4407599 803
76.331299 3.4405999 803
77.207603 3.4404399 803
78.083801 3.4402699 803
79.058296 3.4443901 804
79.935501 3.4442201 804
80.913101 3.4483299 805
81.791298 3.4481599 805
82.772102 3.45227 806
83.651199 3.45209 806
84.530197 3.45192 806
85.409302 3.45174 806
86.2882 3.45156 806
87.2752 3.4556601 807
88.155098 3.4554701 807
89.145203 3.4595699 808
90.0261 3.4593799 808
90.906799 3.4591899 808
91.9011 3.46328 809
92.782799 3.4630799 809
93.780197 3.46717 810
94.779701 3.4712501 811
95.663399 3.47105 811
96.546997 3.47085 811
97.550697 3.4749801 812
98.435204 3.4747701 812
99.319603 3.47456 812
100.204 3.47435 812
101.213 3.47842 813
102.098 3.47821 813
103.11 3.48227 814
103.996 3.48206 814
104.882 3.4818399 814
105.898 3.4858899 815
106.917 3.4899499 816
107.805 3.4897201 816
108.826 3.4937799 817
109.715 3.4935501 817
110.604 3.49332 817
111.629 3.49736 818
112.657 3.5014 819
113.548 3.5011699 819
114.578 3.5052099 820
115.47 3.5049701 820
116.362 3.50473 820
117.396 3.50876 821
118.433 3.51279 822
119.326 3.5125401 822
120.22 3.51229 822
121.261 3.51631 823
122.155 3.5160601 823
123.199 3.5200801 824
124.245 3.5241001 825
125.293 3.52811 826
126.19 3.5278499 826
127.088 3.52759 826
128.14 3.5316 827
129.194 3.5355999 828
130.093 3.5353301 828
131.14999 3.53934 829
132.05 3.53912 829
133.11 3.5431199 830
134.173 3.5471101 831
135.237 3.5511 832
136.14 3.5508201 832
137.20799 3.55481 833
138.27699 3.5588 834
139.18201 3.5585101 834
140.255 3.56249 835
141.33 3.5664699 836
142.40601 3.5704501 837
143.485 3.57442 838
144.56599 3.5783899 839
145.649 3.58236 840
146.73399 3.5863299 841
147.99699 3.5945599 843
149.08701 3.59852 844
150.17999 3.6024799 845
151.274 3.6064301 846
6.9313898 4.30515 799
7.8060198 4.30513 799
9.5432997 4.2997098 798
10.4038 4.2943001 797
11.2762 4.29427 797
12.1333 4.2888498 796
13.0046 4.2888298 796
13.8759 4.2887902 796
14.7472 4.2887602 796
15.6185 4.2887201 796
16.469 4.2832999 795
17.339199 4.2832599 795
18.209299 4.2832198 795
