ply
format ascii 1.0
comment PCL generated
element vertex 2104
property float x
property float y
property float z
element camera 0
property float view_px
property float view_py
property float view_pz
property float x_axisx
property float x_axisy
property float x_axisz
property float y_axisx
property float y_axisy
property float y_axisz
property float z_axisx
property float z_axisy
property float z_axisz
property float focal
property float scalex
property float scaley
property float centerx
property float centery
property int viewportx
property int viewporty
property float k1
property float k2
end_header
238.569 -109.907 837
172.92101 -112.925 864
173.25101 -112.529 861
173.573 -112.132 858
174.093 -111.866 856
174.608 -111.6 854
175.118 -111.334 852
175.83099 -111.199 851
176.54201 -111.064 850
177.25 -110.928 849
177.95599 -110.793 848
178.659 -110.658 847
179.36099 -110.522 846
180.06 -110.387 845
180.757 -110.252 844
181.66701 -110.247 844
182.577 -110.243 844
183.269 -110.107 843
183.959 -109.972 842
184.647 -109.836 841
185.55299 -109.832 841
186.459 -109.827 841
187.36501 -109.822 841
188.047 -109.687 840
188.726 -109.551 839
189.63 -109.547 839
190.306 -109.411 838
191.20799 -109.406 838
191.881 -109.271 837
192.782 -109.266 837
193.451 -109.131 836
194.351 -109.126 836
195.017 -108.991 835
195.91499 -108.986 835
196.577 -108.85 834
197.474 -108.845 834
198.371 -108.84 834
199.26801 -108.835 834
199.924 -108.7 833
200.82001 -108.695 833
201.715 -108.69 833
202.61 -108.685 833
203.505 -108.68 833
204.39999 -108.675 833
205.295 -108.67 833
206.19 -108.665 833
206.836 -108.529 832
207.729 -108.524 832
208.623 -108.519 832
209.51601 -108.514 832
210.409 -108.509 832
211.302 -108.504 832
211.94 -108.369 831
213.088 -108.494 832
213.98 -108.489 832
214.873 -108.484 832
215.765 -108.478 832
216.658 -108.473 832
217.55 -108.468 832
218.442 -108.463 832
219.334 -108.458 832
220.226 -108.452 832
221.117 -108.447 832
222.009 -108.442 832
222.901 -108.437 832
223.79201 -108.431 832
224.683 -108.426 832
225.84599 -108.551 833
226.73801 -108.546 833
227.63 -108.54 833
228.79601 -108.665 834
229.689 -108.66 834
230.582 -108.655 834
231.752 -108.78 835
232.645 -108.774 835
233.819 -108.899 836
234.713 -108.894 836
235.60699 -108.888 836
236.784 -109.013 837
237.679 -109.008 837
238.57401 -109.002 837
239.46899 -108.997 837
240.364 -108.991 837
172.05 -112.645 869
172.192 -112.122 865
172.326 -111.599 861
172.65199 -111.206 858
173.173 -110.942 856
173.69099 -110.678 854
174.203 -110.415 852
174.91701 -110.28 851
175.629 -110.146 850
176.338 -110.012 849
177.04601 -109.878 848
177.75101 -109.744 847
178.453 -109.61 846
179.366 -109.605 846
180.065 -109.471 845
180.76199 -109.337 844
181.45599 -109.202 843
182.36501 -109.198 843
183.274 -109.193 843
183.964 -109.059 842
184.65199 -108.925 841
185.558 -108.92 841
186.464 -108.915 841
187.147 -108.781 840
188.05099 -108.776 840
188.731 -108.642 839
189.63499 -108.637 839
190.311 -108.503 838
191.213 -108.498 838
191.886 -108.364 837
192.787 -108.359 837
193.45599 -108.225 836
194.355 -108.22 836
195.021 -108.086 835
195.92 -108.081 835
196.81799 -108.076 835
197.479 -107.942 834
198.37601 -107.937 834
199.27299 -107.932 834
200.16901 -107.927 834
200.825 -107.793 833
201.72 -107.788 833
202.61501 -107.783 833
203.50999 -107.778 833
204.405 -107.773 833
205.3 -107.768 833
205.94701 -107.633 832
206.841 -107.628 832
207.73399 -107.623 832
208.62801 -107.618 832
209.521 -107.613 832
210.414 -107.608 832
211.30701 -107.603 832
211.94501 -107.469 831
212.83701 -107.464 831
213.985 -107.588 832
214.87801 -107.583 832
215.77 -107.578 832
216.66299 -107.573 832
217.55499 -107.567 832
218.44701 -107.562 832
219.339 -107.557 832
220.231 -107.552 832
221.123 -107.547 832
222.01401 -107.542 832
222.90601 -107.536 832
223.797 -107.531 832
224.959 -107.655 833
225.851 -107.65 833
227.015 -107.774 834
227.908 -107.769 834
228.80099 -107.763 834
229.694 -107.758 834
230.86301 -107.882 835
231.757 -107.877 835
232.929 -108 836
233.82401 -107.995 836
234.99899 -108.119 837
235.894 -108.113 837
236.78999 -108.108 837
237.685 -108.103 837
238.58 -108.097 837
239.47501 -108.092 837
240.37 -108.086 837
241.26401 -108.081 837
171.26199 -111.188 865
171.599 -110.798 862
171.92999 -110.408 859
172.254 -110.018 856
172.97501 -109.885 855
173.492 -109.623 853
174.20799 -109.49 852
174.716 -109.229 850
175.634 -109.224 850
176.343 -109.091 849
177.05 -108.958 848
177.755 -108.825 847
178.45799 -108.692 846
179.37 -108.687 846
180.069 -108.554 845
180.76601 -108.421 844
181.461 -108.288 843
182.153 -108.155 842
183.061 -108.151 842
183.968 -108.146 842
184.65601 -108.013 841
185.342 -107.88 840
186.24699 -107.875 840
186.929 -107.742 839
187.832 -107.737 839
188.73599 -107.733 839
189.63901 -107.728 839
190.31599 -107.595 838
191.218 -107.59 838
191.89101 -107.457 837
192.791 -107.452 837
193.461 -107.319 836
194.36 -107.314 836
195.026 -107.181 835
195.924 -107.176 835
196.823 -107.171 835
197.72099 -107.166 835
198.381 -107.033 834
199.27699 -107.028 834
200.174 -107.023 834
201.071 -107.019 834
201.967 -107.014 834
202.62 -106.88 833
203.515 -106.875 833
204.41 -106.871 833
205.30499 -106.866 833
206.2 -106.861 833
206.84599 -106.727 832
207.739 -106.722 832
208.633 -106.717 832
209.526 -106.712 832
210.41901 -106.707 832
211.312 -106.702 832
212.205 -106.697 832
212.842 -106.564 831
213.733 -106.559 831
214.883 -106.682 832
215.776 -106.677 832
216.668 -106.672 832
217.82201 -106.795 833
218.715 -106.79 833
219.608 -106.785 833
220.50101 -106.78 833
221.394 -106.774 833
222.286 -106.769 833
223.179 -106.764 833
224.07201 -106.759 833
224.964 -106.754 833
225.856 -106.748 833
227.021 -106.871 834
227.914 -106.866 834
228.80701 -106.861 834
229.97501 -106.984 835
230.869 -106.979 835
232.03999 -107.101 836
232.935 -107.096 836
233.82899 -107.091 836
235.004 -107.214 837
235.89999 -107.208 837
236.795 -107.203 837
237.69 -107.197 837
238.58501 -107.192 837
239.48 -107.187 837
240.375 -107.181 837
241.558 -107.304 838
242.45399 -107.299 838
170.52901 -110.381 866
170.673 -109.867 862
171.007 -109.48 859
171.534 -109.221 857
172.05701 -108.961 855
172.575 -108.702 853
173.293 -108.57 852
174.008 -108.438 851
174.72099 -108.307 850
175.431 -108.175 849
176.34801 -108.17 849
177.05499 -108.038 848
177.75999 -107.906 847
178.46201 -107.774 846
179.16299 -107.642 845
180.07401 -107.638 845
180.771 -107.506 844
181.466 -107.374 843
182.158 -107.242 842
183.06599 -107.237 842
183.755 -107.106 841
184.661 -107.101 841
185.34599 -106.969 840
186.25101 -106.964 840
186.933 -106.832 839
187.83701 -106.828 839
188.741 -106.823 839
189.644 -106.818 839
190.32001 -106.686 838
191.22301 -106.682 838
191.895 -106.549 837
192.56599 -106.417 836
193.466 -106.413 836
194.133 -106.281 835
195.03101 -106.276 835
195.929 -106.271 835
196.827 -106.266 835
197.72501 -106.262 835
198.62399 -106.257 835
199.282 -106.125 834
200.179 -106.12 834
201.075 -106.115 834
202.214 -106.237 835
202.868 -106.105 834
203.76401 -106.1 834
204.661 -106.095 834
205.556 -106.09 834
206.205 -105.958 833
207.10001 -105.953 833
207.744 -105.821 832
208.638 -105.816 832
209.53101 -105.811 832
210.424 -105.806 832
211.317 -105.801 832
212.21001 -105.796 832
212.847 -105.664 831
213.73801 -105.659 831
214.888 -105.781 832
215.78101 -105.776 832
216.933 -105.898 833
217.827 -105.893 833
218.72 -105.888 833
219.61301 -105.883 833
220.506 -105.878 833
221.399 -105.873 833
222.29201 -105.868 833
223.18401 -105.863 833
224.077 -105.857 833
224.96899 -105.852 833
226.133 -105.974 834
227.026 -105.969 834
227.91901 -105.964 834
229.086 -106.086 835
229.98 -106.08 835
230.87399 -106.075 835
232.045 -106.197 836
233.21899 -106.319 837
234.114 -106.313 837
235.00999 -106.308 837
235.905 -106.303 837
236.8 -106.298 837
237.696 -106.292 837
238.87601 -106.414 838
239.772 -106.409 838
240.668 -106.403 838
241.563 -106.398 838
242.748 -106.52 839
243.645 -106.514 839
169.79401 -109.572 867
169.94299 -109.062 863
170.28101 -108.679 860
170.61301 -108.295 857
171.338 -108.164 856
171.86 -107.907 854
172.58 -107.777 853
173.09399 -107.519 851
173.808 -107.389 850
174.52 -107.258 849
175.229 -107.127 848
176.144 -107.123 848
176.85001 -106.992 847
177.76401 -106.987 847
178.467 -106.857 846
179.16701 -106.726 845
179.86501 -106.595 844
180.77499 -106.591 844
181.47 -106.46 843
182.16299 -106.329 842
183.07001 -106.324 842
183.759 -106.194 841
184.66499 -106.189 841
185.351 -106.058 840
186.256 -106.053 840
186.938 -105.923 839
187.842 -105.918 839
188.745 -105.913 839
189.423 -105.782 838
190.325 -105.778 838
191.22701 -105.773 838
191.89999 -105.642 837
192.571 -105.511 836
193.47 -105.507 836
194.37 -105.502 836
195.036 -105.371 835
195.93401 -105.366 835
196.832 -105.361 835
197.73 -105.357 835
198.62801 -105.352 835
199.526 -105.347 835
200.18401 -105.216 834
201.08 -105.211 834
202.21899 -105.333 835
203.116 -105.328 835
203.769 -105.197 834
204.66499 -105.192 834
205.561 -105.187 834
206.457 -105.182 834
207.104 -105.051 833
207.99899 -105.046 833
208.64301 -104.915 832
209.536 -104.91 832
210.429 -104.905 832
211.32201 -104.9 832
212.215 -104.895 832
213.108 -104.89 832
214.00101 -104.885 832
214.89301 -104.88 832
216.045 -105.001 833
216.938 -104.996 833
218.093 -105.117 834
218.98801 -105.112 834
219.882 -105.107 834
220.776 -105.102 834
221.67 -105.097 834
222.564 -105.092 834
223.457 -105.087 834
224.351 -105.082 834
225.244 -105.077 834
226.138 -105.072 834
227.30299 -105.192 835
228.19701 -105.187 835
229.091 -105.182 835
229.985 -105.177 835
231.15601 -105.298 836
232.05099 -105.292 836
233.224 -105.413 837
234.119 -105.408 837
235.015 -105.403 837
235.91 -105.397 837
236.806 -105.392 837
237.985 -105.513 838
238.881 -105.508 838
240.063 -105.628 839
240.96001 -105.623 839
241.85699 -105.618 839
243.043 -105.738 840
243.94099 -105.733 840
245.13 -105.853 841
169.05701 -108.761 868
169.211 -108.255 864
169.554 -107.875 861
169.89 -107.495 858
170.21899 -107.115 855
170.942 -106.985 854
171.66299 -106.855 853
172.179 -106.6 851
172.895 -106.471 850
173.608 -106.341 849
174.319 -106.211 848
175.02699 -106.082 847
175.94099 -106.077 847
176.855 -106.073 847
177.55901 -105.943 846
178.47099 -105.939 846
179.172 -105.809 845
179.87 -105.68 844
180.56599 -105.55 843
181.47501 -105.545 843
182.16701 -105.416 842
182.85699 -105.286 841
183.76401 -105.281 841
184.45 -105.152 840
185.356 -105.147 840
186.039 -105.017 839
186.94299 -105.013 839
187.62199 -104.883 838
188.52499 -104.878 838
189.427 -104.874 838
190.33 -104.869 838
191.23199 -104.865 838
191.905 -104.735 837
192.806 -104.73 837
193.47501 -104.6 836
194.375 -104.596 836
195.03999 -104.466 835
195.939 -104.461 835
196.83701 -104.456 835
197.735 -104.452 835
198.633 -104.447 835
199.53101 -104.442 835
200.429 -104.437 835
201.326 -104.433 835
202.224 -104.428 835
203.121 -104.423 835
204.019 -104.418 835
204.916 -104.413 835
205.813 -104.408 835
206.46201 -104.279 834
207.358 -104.274 834
208.004 -104.144 833
208.89799 -104.139 833
209.541 -104.009 832
210.43401 -104.004 832
211.327 -103.999 832
212.47501 -104.119 833
213.11301 -103.989 832
214.006 -103.984 832
214.89799 -103.979 832
216.05 -104.099 833
216.94299 -104.095 833
217.83701 -104.09 833
218.993 -104.209 834
219.88699 -104.204 834
220.78101 -104.199 834
221.675 -104.194 834
222.569 -104.189 834
223.46201 -104.184 834
224.356 -104.179 834
225.24899 -104.174 834
226.414 -104.294 835
227.308 -104.289 835
228.202 -104.284 835
229.097 -104.279 835
230.26601 -104.398 836
231.161 -104.393 836
232.056 -104.388 836
233.229 -104.508 837
234.125 -104.502 837
235.30099 -104.622 838
236.19701 -104.617 838
237.09399 -104.612 838
237.99001 -104.606 838
238.886 -104.601 838
240.06799 -104.721 839
240.965 -104.716 839
242.14999 -104.835 840
243.338 -104.955 841
244.23599 -104.949 841
245.427 -105.069 842
246.326 -105.063 842
168.123 -107.823 868
168.47701 -107.446 865
168.82401 -107.069 862
169.164 -106.692 859
169.696 -106.439 857
170.024 -106.062 854
170.746 -105.934 853
171.466 -105.805 852
172.18401 -105.677 851
172.899 -105.548 850
173.612 -105.42 849
174.323 -105.291 848
175.03101 -105.163 847
175.94501 -105.158 847
176.85899 -105.154 847
177.563 -105.025 846
178.265 -104.897 845
178.964 -104.768 844
179.87399 -104.764 844
180.57001 -104.635 843
181.479 -104.631 843
182.172 -104.502 842
182.862 -104.374 841
183.55 -104.245 840
184.455 -104.241 840
185.36 -104.236 840
186.043 -104.107 839
186.94701 -104.103 839
187.627 -103.974 838
188.53 -103.97 838
189.43201 -103.965 838
190.334 -103.961 838
191.008 -103.832 837
191.909 -103.827 837
192.81 -103.823 837
193.48 -103.694 836
194.379 -103.689 836
195.27901 -103.685 836
195.944 -103.556 835
196.842 -103.551 835
197.74001 -103.547 835
198.638 -103.542 835
199.536 -103.537 835
200.433 -103.532 835
201.33099 -103.528 835
202.229 -103.523 835
203.12601 -103.518 835
204.02299 -103.513 835
204.92 -103.509 835
205.81799 -103.504 835
206.467 -103.375 834
207.114 -103.246 833
208.009 -103.241 833
208.65199 -103.113 832
209.54601 -103.108 832
210.439 -103.103 832
211.332 -103.098 832
212.22501 -103.093 832
213.118 -103.088 832
214.00999 -103.083 832
214.903 -103.078 832
215.79601 -103.074 832
216.688 -103.069 832
217.842 -103.188 833
218.735 -103.183 833
219.892 -103.301 834
220.786 -103.297 834
221.67999 -103.291 834
222.57401 -103.286 834
223.735 -103.405 835
224.63 -103.4 835
225.52499 -103.395 835
226.41901 -103.39 835
227.586 -103.509 836
228.481 -103.504 836
229.37601 -103.499 836
230.271 -103.494 836
231.166 -103.489 836
232.338 -103.607 837
233.23399 -103.602 837
234.13 -103.597 837
235.02499 -103.592 837
236.203 -103.71 838
237.099 -103.705 838
237.995 -103.7 838
239.177 -103.819 839
240.07401 -103.813 839
240.97099 -103.808 839
242.15601 -103.927 840
243.343 -104.045 841
244.532 -104.163 842
245.43201 -104.158 842
246.62399 -104.277 843
247.524 -104.271 843
167.209 -107.504 873
167.382 -107.008 869
167.54601 -106.511 865
167.896 -106.137 862
168.24001 -105.764 859
168.774 -105.513 857
169.304 -105.263 855
170.02901 -105.135 854
170.55 -104.885 852
171.269 -104.757 851
171.98599 -104.63 850
172.7 -104.503 849
173.617 -104.498 849
174.327 -104.371 848
175.036 -104.244 847
175.742 -104.116 846
176.655 -104.112 846
177.56799 -104.108 846
178.269 -103.98 845
178.96899 -103.853 844
179.879 -103.848 844
180.575 -103.721 843
181.26801 -103.593 842
182.17599 -103.589 842
182.866 -103.461 841
183.554 -103.334 840
184.24001 -103.206 839
185.144 -103.202 839
186.048 -103.198 839
186.952 -103.193 839
187.632 -103.066 838
188.534 -103.061 838
189.211 -102.933 837
190.112 -102.929 837
191.013 -102.924 837
191.914 -102.92 837
192.58501 -102.792 836
193.48399 -102.788 836
194.151 -102.66 835
195.05 -102.655 835
195.948 -102.651 835
196.84599 -102.646 835
197.744 -102.642 835
198.642 -102.637 835
199.53999 -102.632 835
200.438 -102.627 835
201.336 -102.623 835
202.233 -102.618 835
203.131 -102.613 835
203.784 -102.486 834
204.67999 -102.481 834
205.576 -102.476 834
206.472 -102.471 834
207.119 -102.344 833
208.01401 -102.339 833
208.908 -102.334 833
209.55099 -102.207 832
210.444 -102.202 832
211.33701 -102.197 832
212.23 -102.192 832
213.123 -102.187 832
214.015 -102.182 832
215.166 -102.3 833
216.06 -102.295 833
216.953 -102.29 833
217.847 -102.286 833
218.74001 -102.281 833
219.897 -102.398 834
220.791 -102.394 834
221.685 -102.389 834
222.84599 -102.506 835
223.74001 -102.501 835
224.63499 -102.496 835
225.53 -102.491 835
226.69501 -102.609 836
227.591 -102.604 836
228.48599 -102.599 836
229.381 -102.594 836
230.276 -102.589 836
231.17101 -102.584 836
232.34399 -102.701 837
233.239 -102.696 837
234.13499 -102.691 837
235.03 -102.686 837
236.20799 -102.804 838
237.104 -102.799 838
238.285 -102.916 839
239.18201 -102.911 839
240.36501 -103.028 840
241.263 -103.023 840
242.161 -103.018 840
243.34801 -103.135 841
244.537 -103.253 842
245.729 -103.37 843
246.629 -103.365 843
247.823 -103.482 844
249.02 -103.6 845
166.64999 -106.805 875
166.44701 -106.068 869
166.808 -105.698 866
167.16299 -105.328 863
167.511 -104.957 860
168.049 -104.709 858
168.582 -104.461 856
169.11 -104.213 854
169.834 -104.086 853
170.55499 -103.96 852
171.27299 -103.834 851
171.78799 -103.586 849
172.70399 -103.581 849
173.416 -103.455 848
174.12601 -103.329 847
175.03999 -103.324 847
175.746 -103.198 846
176.659 -103.194 846
177.362 -103.068 845
178.274 -103.063 845
178.97301 -102.937 844
179.67 -102.811 843
180.57899 -102.806 843
181.27299 -102.68 842
182.181 -102.675 842
182.871 -102.549 841
183.55901 -102.423 840
184.244 -102.296 839
185.14799 -102.292 839
186.052 -102.287 839
186.95599 -102.283 839
187.636 -102.157 838
188.539 -102.152 838
189.215 -102.026 837
190.116 -102.021 837
191.017 -102.017 837
191.689 -101.89 836
192.589 -101.886 836
193.257 -101.759 835
194.15601 -101.755 835
195.054 -101.75 835
195.953 -101.746 835
196.851 -101.741 835
197.74899 -101.736 835
198.647 -101.732 835
199.545 -101.727 835
200.44299 -101.722 835
201.34 -101.718 835
202.23801 -101.713 835
203.13499 -101.708 835
204.033 -101.704 835
204.685 -101.577 834
205.58099 -101.572 834
206.47701 -101.568 834
207.12399 -101.441 833
208.01801 -101.436 833
208.91299 -101.432 833
209.80701 -101.427 833
210.44901 -101.3 832
211.342 -101.296 832
212.235 -101.291 832
213.127 -101.286 832
214.02 -101.281 832
215.17101 -101.398 833
216.065 -101.393 833
216.95799 -101.388 833
217.85201 -101.383 833
219.007 -101.5 834
219.90199 -101.495 834
220.79601 -101.491 834
221.69 -101.486 834
222.851 -101.602 835
223.745 -101.597 835
224.909 -101.714 836
225.80499 -101.709 836
226.7 -101.704 836
227.868 -101.821 837
228.76401 -101.816 837
229.661 -101.811 837
230.55701 -101.806 837
231.453 -101.801 837
232.349 -101.796 837
233.52299 -101.912 838
234.42 -101.907 838
235.31599 -101.902 838
236.213 -101.897 838
237.392 -102.014 839
238.28999 -102.008 839
239.472 -102.125 840
240.37 -102.12 840
241.55499 -102.236 841
242.45399 -102.231 841
243.64301 -102.347 842
244.83299 -102.464 843
246.02499 -102.58 844
246.927 -102.575 844
248.12199 -102.691 845
249.32001 -102.807 846
250.519 -102.924 847
165.14 -105.496 872
165.511 -105.129 869
165.87601 -104.762 866
166.427 -104.516 864
166.78 -104.149 861
167.321 -103.903 859
167.85699 -103.657 857
168.38901 -103.41 855
169.11501 -103.285 854
169.63901 -103.039 852
170.35899 -102.914 851
171.076 -102.789 850
171.79201 -102.664 849
172.505 -102.539 848
173.42 -102.535 848
174.13 -102.409 847
175.04401 -102.405 847
175.75101 -102.28 846
176.66299 -102.276 846
177.366 -102.151 845
178.278 -102.146 845
178.97701 -102.021 844
179.674 -101.896 843
180.58299 -101.892 843
181.27699 -101.766 842
182.185 -101.762 842
182.875 -101.637 841
183.563 -101.511 840
184.468 -101.507 840
185.153 -101.382 839
186.05701 -101.377 839
186.961 -101.373 839
187.64101 -101.248 838
188.31799 -101.122 837
189.21899 -101.118 837
190.121 -101.114 837
191.022 -101.109 837
191.694 -100.984 836
192.59399 -100.979 836
193.26199 -100.854 835
194.16 -100.849 835
195.05901 -100.845 835
195.957 -100.84 835
196.856 -100.836 835
197.754 -100.831 835
198.65199 -100.827 835
199.55 -100.822 835
200.44701 -100.817 835
201.345 -100.813 835
202.243 -100.808 835
203.14 -100.803 835
204.037 -100.799 835
204.935 -100.794 835
205.58501 -100.669 834
206.481 -100.664 834
207.12801 -100.539 833
208.02299 -100.534 833
208.918 -100.529 833
209.812 -100.524 833
210.453 -100.399 832
211.60001 -100.515 833
212.495 -100.51 833
213.388 -100.505 833
214.282 -100.501 833
215.17599 -100.496 833
216.07001 -100.491 833
217.224 -100.607 834
218.118 -100.602 834
219.01199 -100.597 834
219.907 -100.592 834
221.065 -100.708 835
221.96001 -100.703 835
222.855 -100.698 835
224.01801 -100.814 836
224.914 -100.809 836
225.81 -100.804 836
226.705 -100.799 836
227.873 -100.915 837
228.769 -100.91 837
229.666 -100.905 837
230.562 -100.9 837
231.45799 -100.895 837
232.631 -101.01 838
233.528 -101.005 838
234.425 -101 838
235.321 -100.995 838
236.5 -101.111 839
237.397 -101.106 839
238.57899 -101.221 840
239.47701 -101.216 840
240.661 -101.331 841
241.561 -101.326 841
242.748 -101.442 842
243.937 -101.557 843
245.129 -101.672 844
246.32201 -101.788 845
247.22501 -101.783 845
248.42101 -101.898 846
249.619 -102.013 847
250.82001 -102.128 848
252.022 -102.243 849
164.76601 -104.913 875
164.576 -104.189 869
164.944 -103.825 866
165.306 -103.462 863
166.04601 -103.338 862
166.59 -103.094 860
167.13 -102.85 858
167.66499 -102.606 856
168.196 -102.362 854
168.92101 -102.238 853
169.64301 -102.114 852
170.36301 -101.99 851
171.08099 -101.866 850
171.998 -101.862 850
172.713 -101.738 849
173.425 -101.614 848
174.34 -101.61 848
175.049 -101.486 847
175.963 -101.482 847
176.668 -101.358 846
177.58 -101.353 846
178.282 -101.229 845
178.98199 -101.105 844
179.679 -100.981 843
180.588 -100.977 843
181.28101 -100.853 842
182.189 -100.848 842
182.88 -100.724 841
183.567 -100.6 840
184.47301 -100.596 840
185.157 -100.472 839
186.061 -100.467 839
186.742 -100.343 838
187.645 -100.339 838
188.323 -100.215 837
189.224 -100.21 837
190.125 -100.206 837
190.798 -100.082 836
191.698 -100.077 836
192.59801 -100.073 836
193.498 -100.068 836
194.39799 -100.064 836
195.297 -100.059 836
196.19701 -100.055 836
197.09599 -100.05 836
197.995 -100.046 836
198.894 -100.041 836
199.793 -100.036 836
200.692 -100.032 836
201.35001 -99.9076 835
202.24699 -99.903 835
203.145 -99.898399 835
204.04201 -99.893799 835
204.939 -99.889099 835
205.59 -99.7649 834
206.48599 -99.760201 834
207.133 -99.635902 833
208.028 -99.631302 833
208.922 -99.626602 833
209.817 -99.621902 833
210.45799 -99.497597 832
211.605 -99.612503 833
212.49899 -99.607697 833
213.39301 -99.602997 833
214.287 -99.598297 833
215.181 -99.593498 833
216.07401 -99.588699 833
217.228 -99.703499 834
218.123 -99.6987 834
219.017 -99.693901 834
219.911 -99.689102 834
221.07001 -99.803802 835
221.965 -99.798897 835
223.127 -99.913597 836
224.02299 -99.908699 836
224.91901 -99.9039 836
225.815 -99.899002 836
226.981 -100.014 837
227.87801 -100.009 837
229.048 -100.123 838
229.94501 -100.118 838
230.842 -100.113 838
231.739 -100.108 838
232.636 -100.103 838
233.812 -100.218 839
234.71001 -100.213 839
235.60699 -100.208 839
236.505 -100.203 839
237.685 -100.317 840
238.584 -100.312 840
239.767 -100.427 841
240.666 -100.422 841
241.853 -100.536 842
243.041 -100.65 843
244.23199 -100.765 844
245.424 -100.879 845
246.619 -100.993 846
247.52299 -100.988 846
248.72 -101.102 847
249.91901 -101.216 848
251.121 -101.331 849
252.32401 -101.445 850
253.53 -101.559 851
163.26199 -103.61 872
163.64 -103.249 869
164.01199 -102.889 866
164.567 -102.647 864
165.118 -102.406 862
165.66499 -102.164 860
166.207 -101.922 858
166.744 -101.681 856
167.47301 -101.558 855
168.00301 -101.316 853
168.72701 -101.193 852
169.448 -101.07 851
170.367 -101.066 851
171.08501 -100.943 850
172.00301 -100.939 850
172.717 -100.816 849
173.429 -100.694 848
174.34399 -100.689 848
175.05299 -100.566 847
175.967 -100.562 847
176.672 -100.439 846
177.58501 -100.435 846
178.286 -100.312 845
178.98599 -100.189 844
179.683 -100.066 843
180.592 -100.062 843
181.286 -99.939003 842
181.97701 -99.816002 841
182.884 -99.811699 841
183.57201 -99.688698 840
184.257 -99.565697 839
185.161 -99.561401 839
186.06599 -99.557098 839
186.74699 -99.434097 838
187.649 -99.429703 838
188.327 -99.306702 837
189.228 -99.302299 837
190.13 -99.297897 837
191.03101 -99.293503 837
191.93201 -99.289001 837
192.83299 -99.284599 837
193.502 -99.161598 836
194.40199 -99.157097 836
195.302 -99.152603 836
196.201 -99.148102 836
197.10001 -99.1436 836
198 -99.139099 836
198.899 -99.134598 836
199.798 -99.130096 836
200.69701 -99.125603 836
201.59599 -99.121002 836
202.252 -98.997902 835
203.149 -98.993301 835
204.047 -98.988701 835
204.944 -98.9841 835
205.595 -98.861 834
206.491 -98.8563 834
207.138 -98.7332 833
208.032 -98.7286 833
208.927 -98.7239 833
209.821 -98.719299 833
210.463 -98.5961 832
211.61 -98.7099 833
212.504 -98.7052 833
213.39799 -98.7005 833
214.29201 -98.695801 833
215.444 -98.809601 834
216.339 -98.804901 834
217.233 -98.800102 834
218.12801 -98.795403 834
219.285 -98.908997 835
220.17999 -98.904297 835
221.075 -98.899498 835
222.23599 -99.0131 836
223.132 -99.008301 836
224.29601 -99.121902 837
225.19299 -99.117104 837
226.09 -99.112198 837
226.98599 -99.107399 837
228.155 -99.220901 838
229.052 -99.216003 838
229.95 -99.211098 838
230.847 -99.2062 838
231.744 -99.201302 838
232.64101 -99.196404 838
233.817 -99.309799 839
234.715 -99.304901 839
235.612 -99.299896 839
236.79201 -99.4133 840
237.69 -99.408302 840
238.873 -99.521698 841
239.772 -99.516701 841
240.95799 -99.629997 842
242.145 -99.743301 843
243.33501 -99.856598 844
244.526 -99.969803 845
245.72 -100.083 846
246.91499 -100.196 847
247.82001 -100.191 847
249.019 -100.304 848
250.21899 -100.418 849
251.718 -100.649 851
252.923 -100.762 852
254.131 -100.875 853
255.341 -100.988 854
162.30499 -103.259 877
162.50999 -102.784 873
162.517 -102.192 868
163.07899 -101.952 866
163.63699 -101.713 864
164.19 -101.473 862
164.739 -101.234 860
165.476 -101.112 859
166.017 -100.873 857
166.748 -100.751 856
167.47701 -100.629 855
168.007 -100.39 853
168.731 -100.268 852
169.452 -100.146 851
170.17101 -100.025 850
171.089 -100.021 850
171.804 -99.898804 849
172.72099 -99.894699 849
173.433 -99.772903 848
174.34801 -99.768799 848
175.05701 -99.647003 847
175.97099 -99.642799 847
176.67599 -99.521004 846
177.589 -99.5168 846
178.291 -99.394997 845
178.99001 -99.273201 844
179.687 -99.151299 843
180.382 -99.029503 842
181.28999 -99.0252 842
181.981 -98.903397 841
182.888 -98.899101 841
183.576 -98.777199 840
184.26199 -98.655403 839
185.166 -98.6511 839
186.07001 -98.646797 839
186.75101 -98.524902 838
187.65401 -98.520599 838
188.33099 -98.398697 837
189.233 -98.394302 837
190.134 -98.389999 837
191.035 -98.385597 837
191.936 -98.381203 837
192.83701 -98.376801 837
193.507 -98.254799 836
194.40601 -98.250504 836
195.306 -98.246002 836
196.20599 -98.2416 836
197.105 -98.237099 836
198.004 -98.232597 836
198.903 -98.228203 836
199.802 -98.223701 836
200.701 -98.2192 836
201.60001 -98.214699 836
202.49899 -98.210197 836
203.15401 -98.088097 835
204.05099 -98.083603 835
204.94901 -98.079002 835
205.84599 -98.074501 835
206.495 -97.9524 834
207.39101 -97.9478 834
208.287 -97.943298 834
209.18201 -97.938599 834
209.826 -97.816597 833
210.72 -97.811996 833
211.61501 -97.807297 833
212.509 -97.802696 833
213.403 -97.797997 833
214.29601 -97.793404 833
215.44901 -97.906097 834
216.343 -97.901398 834
217.23801 -97.896698 834
218.132 -97.891998 834
219.289 -98.004601 835
220.185 -97.999901 835
221.345 -98.112503 836
222.241 -98.107697 836
223.13699 -98.102997 836
224.30099 -98.2155 837
225.198 -98.210701 837
226.09399 -98.205902 837
226.991 -98.201103 837
228.16 -98.313599 838
229.05701 -98.308701 838
229.955 -98.303902 838
230.85201 -98.299004 838
232.026 -98.411499 839
232.924 -98.406601 839
233.82201 -98.401703 839
234.99899 -98.514099 840
235.89799 -98.509201 840
237.07899 -98.621498 841
237.978 -98.616501 841
239.162 -98.728897 842
240.062 -98.7239 842
241.24899 -98.836197 843
242.437 -98.948402 844
243.62801 -99.0606 845
244.821 -99.172897 846
246.015 -99.285004 847
247.21201 -99.397202 848
248.41 -99.509399 849
249.317 -99.504303 849
250.519 -99.616402 850
251.72301 -99.7285 851
253.22501 -99.957802 853
254.43401 -100.07 854
255.645 -100.182 855
256.85699 -100.294 856
161.01401 -101.49 870
161.58299 -101.253 868
161.96001 -100.899 865
162.519 -100.662 863
163.073 -100.424 861
163.813 -100.304 860
164.55099 -100.183 859
165.287 -100.063 858
166.021 -99.942001 857
166.558 -99.704803 855
167.286 -99.584099 854
168.011 -99.463501 853
168.735 -99.342903 852
169.45599 -99.222298 851
170.175 -99.1017 850
171.093 -99.097603 850
171.808 -98.976997 849
172.72501 -98.9729 849
173.437 -98.852203 848
174.353 -98.848099 848
175.061 -98.727501 847
175.97501 -98.723297 847
176.88901 -98.7192 847
177.593 -98.598503 846
178.295 -98.477798 845
178.994 -98.357101 844
179.69099 -98.236397 843
180.60001 -98.232101 843
181.29401 -98.111397 842
182.202 -98.107201 842
182.892 -97.986504 841
183.58 -97.8657 840
184.26601 -97.745003 839
185.17 -97.7407 839
186.07401 -97.736504 839
186.755 -97.6157 838
187.658 -97.611397 838
188.561 -97.607101 838
189.237 -97.486298 837
190.138 -97.482002 837
191.03999 -97.477699 837
191.94099 -97.473297 837
192.61099 -97.352501 836
193.511 -97.348099 836
194.411 -97.343803 836
195.31 -97.339401 836
196.21001 -97.334999 836
197.10899 -97.330498 836
198.009 -97.326103 836
198.908 -97.321701 836
199.80701 -97.3172 836
200.70599 -97.312698 836
201.604 -97.308296 836
202.50301 -97.303802 836
203.158 -97.182899 835
204.056 -97.178398 835
204.953 -97.173897 835
205.85001 -97.169296 835
206.5 -97.0485 834
207.396 -97.0439 834
208.291 -97.039299 834
209.187 -97.034798 834
209.83099 -96.913902 833
210.72501 -96.909302 833
211.619 -96.904701 833
212.513 -96.900101 833
213.407 -96.8955 833
214.30099 -96.8908 833
215.19501 -96.8862 833
216.34801 -96.997902 834
217.243 -96.993202 834
218.399 -97.104797 835
219.29401 -97.100197 835
220.453 -97.2117 836
221.349 -97.207001 836
222.511 -97.318604 837
223.408 -97.313797 837
224.306 -97.309097 837
225.202 -97.304298 837
226.369 -97.415802 838
227.267 -97.411003 838
228.16499 -97.406197 838
229.062 -97.401398 838
230.23399 -97.512901 839
231.132 -97.508003 839
232.03 -97.503197 839
232.929 -97.498398 839
234.105 -97.609703 840
235.004 -97.604797 840
236.18401 -97.716202 841
237.366 -97.827499 842
238.26601 -97.822601 842
239.451 -97.9338 843
240.35201 -97.928902 843
241.53999 -98.0401 844
242.73 -98.151299 845
243.92101 -98.262497 846
245.11501 -98.373703 847
246.311 -98.484802 848
247.508 -98.596001 849
248.70799 -98.7071 850
249.91 -98.818199 851
250.819 -98.813103 851
252.319 -99.040298 853
253.52699 -99.151299 854
254.737 -99.262299 855
255.94901 -99.373398 856
257.46301 -99.600403 858
258.67999 -99.711304 859
260.20099 -99.938301 861
160.261 -100.664 871
160.463 -100.198 867
161.028 -99.962799 865
161.589 -99.727798 863
162.146 -99.492798 861
162.88699 -99.373398 860
163.436 -99.138397 858
164.172 -99.018898 857
165.099 -99.014999 857
165.83099 -98.8955 856
166.367 -98.6605 854
167.09399 -98.5411 853
167.81799 -98.4216 852
168.739 -98.417603 852
169.46001 -98.298103 851
170.179 -98.178596 850
171.097 -98.174599 850
171.813 -98.055 849
172.729 -98.051003 849
173.44099 -97.931503 848
174.35699 -97.927399 848
175.065 -97.8078 847
175.979 -97.803802 847
176.89301 -97.799698 847
177.597 -97.680099 846
178.299 -97.560501 845
178.998 -97.440903 844
179.909 -97.436798 844
180.605 -97.3172 843
181.51401 -97.313004 843
182.20599 -97.193398 842
183.114 -97.189201 842
183.584 -96.954102 840
184.49001 -96.949898 840
185.174 -96.830299 839
186.078 -96.826103 839
186.759 -96.706398 838
187.662 -96.702202 838
188.565 -96.697899 838
189.241 -96.5783 837
190.14301 -96.573997 837
190.81599 -96.4543 836
191.716 -96.449997 836
192.616 -96.445702 836
193.51601 -96.441299 836
194.41499 -96.436996 836
195.315 -96.432602 836
196.214 -96.428299 836
197.114 -96.423897 836
198.013 -96.419502 836
198.912 -96.4151 836
199.811 -96.410698 836
200.71001 -96.406303 836
201.60899 -96.401802 836
202.508 -96.3974 836
203.16299 -96.277603 835
204.06 -96.273201 835
204.95799 -96.2687 835
205.855 -96.264198 835
206.504 -96.144402 834
207.39999 -96.1399 834
208.29601 -96.135399 834
209.192 -96.130798 834
209.83501 -96.011101 833
210.729 -96.0065 833
211.62399 -96.001999 833
212.51801 -95.997398 833
213.412 -95.992798 833
214.306 -95.988197 833
215.19901 -95.983704 833
216.353 -96.094299 834
217.24699 -96.089699 834
218.403 -96.200203 835
219.561 -96.310799 836
220.45799 -96.306099 836
221.354 -96.301498 836
222.51601 -96.412003 837
223.41299 -96.407303 837
224.31 -96.402603 837
225.207 -96.397903 837
226.37399 -96.508301 838
227.272 -96.503601 838
228.16901 -96.498802 838
229.34 -96.6092 839
230.239 -96.604401 839
231.41299 -96.714798 840
232.312 -96.709999 840
233.211 -96.7052 840
234.38901 -96.815498 841
235.289 -96.810699 841
236.47 -96.920998 842
237.65199 -97.031197 843
238.554 -97.026299 843
239.74001 -97.136597 844
240.642 -97.131699 844
241.83099 -97.241898 845
242.735 -97.2369 845
243.92599 -97.347099 846
245.12 -97.457199 847
246.31599 -97.567299 848
247.80499 -97.792503 850
249.006 -97.902603 851
250.209 -98.012604 852
251.41299 -98.122597 853
252.62 -98.232697 854
254.12601 -98.457603 856
255.338 -98.567596 857
256.552 -98.677498 858
257.76801 -98.787498 859
259.28699 -99.012398 861
260.508 -99.122299 862
262.034 -99.347099 864
159.13901 -99.606796 870
159.528 -99.259598 867
160.09599 -99.026802 865
160.66 -98.793999 863
161.21899 -98.561203 861
161.77299 -98.3284 859
162.51199 -98.210098 858
163.25 -98.091797 857
163.985 -97.973503 856
164.91 -97.969597 856
165.64101 -97.851196 855
166.371 -97.732903 854
167.09801 -97.614502 853
167.82201 -97.496201 852
168.545 -97.3778 851
169.464 -97.373901 851
170.183 -97.255501 850
171.101 -97.251503 850
171.817 -97.133102 849
172.733 -97.129097 849
173.44501 -97.010696 848
174.155 -96.892303 847
175.069 -96.888199 847
175.776 -96.769798 846
176.689 -96.765701 846
177.601 -96.761597 846
178.30299 -96.643204 845
179.00301 -96.524696 844
179.91299 -96.520599 844
180.60899 -96.4021 843
181.51801 -96.398003 843
182.21001 -96.279503 842
182.901 -96.161003 841
183.589 -96.042503 840
184.274 -95.924004 839
185.179 -95.9198 839
186.08299 -95.915604 839
186.987 -95.9114 839
187.66701 -95.7929 838
188.569 -95.788696 838
189.246 -95.670097 837
190.147 -95.665901 837
190.82001 -95.547302 836
191.72 -95.543098 836
192.62 -95.538803 836
193.52 -95.5345 836
194.42 -95.530197 836
195.319 -95.525902 836
196.21899 -95.521599 836
197.118 -95.517197 836
198.017 -95.512901 836
198.91701 -95.508499 836
199.81599 -95.504097 836
200.715 -95.499702 836
201.61301 -95.4953 836
202.51199 -95.490898 836
203.16701 -95.372299 835
204.065 -95.367897 835
204.96201 -95.363403 835
205.85899 -95.359001 835
206.509 -95.240303 834
207.405 -95.235901 834
208.3 -95.2314 834
209.196 -95.226898 834
210.092 -95.222397 834
210.73399 -95.103699 833
211.62801 -95.099197 833
212.522 -95.094704 833
213.416 -95.090103 833
214.31 -95.085602 833
215.46201 -95.195198 834
216.35699 -95.190697 834
217.51199 -95.300201 835
218.408 -95.295601 835
219.56599 -95.405098 836
220.46201 -95.400497 836
221.35899 -95.395897 836
222.521 -95.505302 837
223.418 -95.500702 837
224.58299 -95.6101 838
225.481 -95.6054 838
226.379 -95.6008 838
227.27699 -95.596001 838
228.446 -95.705399 839
229.345 -95.700699 839
230.51801 -95.809998 840
231.41701 -95.805298 840
232.593 -95.914597 841
233.493 -95.909798 841
234.672 -96.019096 842
235.573 -96.014297 842
236.755 -96.123497 843
237.657 -96.118698 843
238.842 -96.227898 844
240.02901 -96.337097 845
240.93201 -96.332199 845
242.12199 -96.441399 846
243.02699 -96.436501 846
244.21899 -96.545601 847
245.414 -96.654701 848
246.61099 -96.763802 849
247.81 -96.872803 850
249.30299 -97.095802 852
250.507 -97.204803 853
251.713 -97.313797 854
253.217 -97.536697 856
254.42799 -97.645599 857
255.939 -97.8685 859
257.155 -97.977402 860
258.37299 -98.086304 861
259.89401 -98.309097 863
261.11801 -98.4179 864
262.94901 -98.754501 867
264.483 -98.977203 869
157.983 -99.122498 874
158.383 -98.778503 871
158.411 -98.207802 866
158.98 -97.977203 864
159.545 -97.746597 862
160.105 -97.516098 860
160.84801 -97.398903 859
161.39999 -97.168297 857
162.327 -97.164497 857
163.063 -97.047302 856
163.797 -96.930099 855
164.52901 -96.812897 854
165.452 -96.808998 854
166.17999 -96.691803 853
166.90601 -96.5746 852
167.826 -96.570702 852
168.549 -96.453499 851
169.468 -96.449501 851
170.187 -96.332298 850
171.105 -96.3283 850
171.82001 -96.210999 849
172.534 -96.093803 848
173.44901 -96.089798 848
174.159 -95.972504 847
175.073 -95.968498 847
175.78 -95.851196 846
176.69299 -95.847099 846
177.396 -95.729797 845
178.30701 -95.7258 845
179.007 -95.608398 844
179.91701 -95.604301 844
180.61301 -95.487 843
181.522 -95.482903 843
182.215 -95.365501 842
182.905 -95.248199 841
183.593 -95.130798 840
184.498 -95.126602 840
185.183 -95.0093 839
186.08701 -95.005096 839
186.991 -95.0009 839
187.67101 -94.883499 838
188.573 -94.879303 838
189.25 -94.761902 837
190.151 -94.757698 837
190.82401 -94.640297 836
191.724 -94.636101 836
192.62399 -94.631798 836
193.524 -94.627602 836
194.424 -94.623299 836
195.323 -94.619003 836
196.22301 -94.6147 836
197.12199 -94.610497 836
198.022 -94.606102 836
198.92101 -94.601799 836
199.82001 -94.597504 836
200.71899 -94.593201 836
201.618 -94.588799 836
202.517 -94.584396 836
203.41499 -94.580002 836
204.069 -94.462502 835
204.967 -94.458099 835
205.864 -94.453697 835
206.761 -94.449303 835
207.409 -94.331703 834
208.30499 -94.327301 834
209.201 -94.322899 834
210.09599 -94.318398 834
210.992 -94.313904 834
211.88699 -94.309502 834
212.782 -94.305 834
213.677 -94.300499 834
214.57201 -94.295998 834
215.467 -94.291496 834
216.621 -94.400002 835
217.517 -94.3955 835
218.674 -94.503998 836
219.571 -94.499397 836
220.731 -94.607803 837
221.62801 -94.603203 837
222.52499 -94.598602 837
223.423 -94.594002 837
224.588 -94.7024 838
225.48599 -94.6978 838
226.383 -94.6931 838
227.552 -94.801498 839
228.451 -94.796799 839
229.623 -94.905098 840
230.52299 -94.900398 840
231.698 -95.008698 841
232.59801 -95.003998 841
233.776 -95.112198 842
234.677 -95.107498 842
235.858 -95.215698 843
236.75999 -95.210999 843
237.944 -95.319099 844
238.847 -95.314301 844
240.034 -95.422501 845
241.222 -95.530602 846
242.41299 -95.638702 847
243.606 -95.746696 848
244.80099 -95.854797 849
245.998 -95.962799 850
247.19701 -96.0709 851
248.39799 -96.178902 852
249.601 -96.286797 853
250.806 -96.394798 854
252.308 -96.615601 856
253.51801 -96.723503 857
255.02699 -96.944298 859
256.242 -97.0522 860
257.758 -97.272903 862
258.978 -97.380699 863
260.50201 -97.601402 865
261.72699 -97.709198 866
263.258 -97.929703 868
265.09698 -98.2631 871
266.332 -98.370796 872
156.68201 -97.951599 872
156.90199 -97.498596 868
157.478 -97.270302 866
157.866 -96.929604 863
158.616 -96.813599 862
159.17799 -96.585197 860
159.73599 -96.356903 858
160.47701 -96.240799 857
161.216 -96.124802 856
161.952 -96.008698 855
162.87601 -96.004898 855
163.60899 -95.888901 854
164.34 -95.772797 853
165.26199 -95.768997 853
165.989 -95.652901 852
166.909 -95.649002 852
167.633 -95.532898 851
168.55299 -95.529099 851
169.27299 -95.412903 850
170.19099 -95.408997 850
170.908 -95.2929 849
171.82401 -95.289001 849
172.53799 -95.172798 848
173.453 -95.1689 848
174.16299 -95.052696 847
175.077 -95.048698 847
175.991 -95.044701 847
176.69701 -94.928497 846
177.399 -94.812302 845
178.311 -94.808296 845
179.011 -94.692101 844
179.92101 -94.688004 844
180.617 -94.5718 843
181.311 -94.455597 842
182.21899 -94.4515 842
182.909 -94.335297 841
183.81599 -94.3312 841
184.502 -94.214897 840
185.408 -94.2108 840
186.091 -94.094498 839
186.995 -94.090401 839
187.675 -93.974098 838
188.578 -93.970001 838
189.254 -93.853699 837
190.155 -93.849503 837
190.828 -93.7332 836
191.729 -93.728996 836
192.39799 -93.612701 835
193.297 -93.608498 835
194.42799 -93.7164 836
195.328 -93.712196 836
196.22701 -93.707901 836
197.127 -93.703598 836
198.026 -93.699402 836
198.925 -93.695099 836
199.82401 -93.690804 836
200.963 -93.7985 837
201.62199 -93.682198 836
202.521 -93.677803 836
203.41901 -93.6735 836
204.31799 -93.669098 836
204.97099 -93.552696 835
205.868 -93.548401 835
206.765 -93.543999 835
207.662 -93.539597 835
208.30901 -93.423203 834
209.205 -93.4188 834
210.10001 -93.414398 834
210.996 -93.410004 834
212.145 -93.517502 835
213.04201 -93.5131 835
213.938 -93.508598 835
214.834 -93.504097 835
215.73 -93.499603 835
216.62601 -93.495201 835
217.782 -93.6026 836
218.679 -93.598099 836
219.838 -93.705498 837
220.735 -93.700996 837
221.633 -93.696503 837
222.53 -93.691902 837
223.427 -93.687302 837
224.592 -93.794701 838
225.49001 -93.7901 838
226.658 -93.8974 839
227.55701 -93.892799 839
228.728 -94.000099 840
229.62801 -93.995399 840
230.802 -94.1026 841
231.702 -94.098 841
232.879 -94.2052 842
233.78101 -94.2005 842
234.96001 -94.307701 843
235.86301 -94.303001 843
237.04601 -94.410103 844
237.94901 -94.405403 844
239.134 -94.512497 845
240.32201 -94.619598 846
241.51199 -94.7267 847
242.70399 -94.833702 848
243.89799 -94.940804 849
245.09399 -95.047798 850
246.29201 -95.1548 851
247.492 -95.261803 852
248.694 -95.368698 853
249.89799 -95.4757 854
251.39799 -95.694397 856
252.60699 -95.8013 857
254.114 -96.019897 859
255.32899 -96.126801 860
256.84299 -96.345398 862
258.36099 -96.564003 864
259.58401 -96.670799 865
260.80801 -96.777496 866
262.33701 -96.996002 868
263.86899 -97.2145 870
265.40601 -97.432899 872
266.948 -97.651299 874
268.49301 -97.869698 876
155.741 -97.007401 872
156.146 -96.669998 869
156.54401 -96.332603 866
157.118 -96.106499 864
157.687 -95.880402 862
158.252 -95.654198 860
158.99699 -95.539299 859
159.554 -95.313202 857
160.29401 -95.198303 856
161.03101 -95.083397 855
161.95599 -95.079597 855
162.69 -94.964699 854
163.42101 -94.849701 853
164.34399 -94.846001 853
165.07201 -94.731003 852
165.993 -94.727203 852
166.717 -94.612198 851
167.63699 -94.608398 851
168.358 -94.493401 850
169.27699 -94.489601 850
170.19501 -94.485703 850
170.912 -94.370697 849
171.828 -94.366798 849
172.54201 -94.251801 848
173.457 -94.247803 848
174.16701 -94.132797 847
175.08099 -94.128899 847
175.995 -94.124901 847
176.909 -94.121002 847
177.61301 -94.005898 846
178.315 -93.8908 845
179.015 -93.775703 844
179.925 -93.771698 844
180.621 -93.656601 843
181.53 -93.652603 843
182.22301 -93.537399 842
183.13 -93.533401 842
183.82001 -93.418297 841
184.506 -93.303101 840
185.412 -93.299103 840
186.095 -93.183899 839
186.99899 -93.179802 839
187.679 -93.064598 838
188.582 -93.060501 838
189.258 -92.945396 837
189.93201 -92.8302 836
190.83299 -92.826103 836
191.50301 -92.710899 835
192.40199 -92.706703 835
193.30099 -92.702599 835
194.43201 -92.809402 836
195.332 -92.805199 836
196.23199 -92.801003 836
197.131 -92.796799 836
198.03 -92.792503 836
198.92999 -92.7883 836
200.06799 -92.894997 837
200.968 -92.890701 837
201.868 -92.886497 837
202.52499 -92.771202 836
203.424 -92.766899 836
204.32201 -92.762604 836
205.22099 -92.758301 836
205.87199 -92.642998 835
206.77 -92.638702 835
207.66701 -92.6343 835
208.563 -92.629997 835
209.209 -92.514702 834
210.105 -92.5103 834
211 -92.505898 834
212.14999 -92.612396 835
213.04601 -92.608002 835
214.198 -92.7145 836
215.09599 -92.709999 836
215.993 -92.705597 836
216.88901 -92.701103 836
217.786 -92.696701 836
218.94501 -92.803101 837
219.842 -92.798599 837
220.74001 -92.794098 837
221.90199 -92.900398 838
222.8 -92.895897 838
223.69901 -92.891403 838
224.597 -92.886902 838
225.495 -92.882301 838
226.66299 -92.988602 839
227.83299 -93.094902 840
228.733 -93.090302 840
229.90601 -93.196503 841
231.08099 -93.302696 842
231.98199 -93.297997 842
233.16 -93.404198 843
234.063 -93.399597 843
235.244 -93.505699 844
236.147 -93.501099 844
237.33099 -93.607101 845
238.235 -93.602402 845
239.422 -93.708504 846
240.61099 -93.814598 847
241.802 -93.920601 848
242.995 -94.026604 849
244.19 -94.132599 850
245.38699 -94.238602 851
246.586 -94.344498 852
248.078 -94.561203 854
249.282 -94.667099 855
250.48801 -94.773003 856
251.69701 -94.878899 857
253.202 -95.095398 859
254.41499 -95.201302 860
255.63 -95.307098 861
257.146 -95.523598 863
258.66501 -95.739998 865
260.189 -95.956398 867
261.41501 -96.062103 868
262.94601 -96.278503 870
264.48099 -96.494797 872
266.01999 -96.711197 874
267.258 -96.816803 875
268.80399 -97.033096 877
270.66199 -97.359901 880
154.623 -95.952904 871
155.03 -95.618797 868
155.61099 -95.394798 866
156.006 -95.060799 863
156.758 -94.946999 862
157.325 -94.723099 860
158.071 -94.609299 859
158.81599 -94.495598 858
159.371 -94.271599 856
160.11 -94.157799 855
160.84599 -94.044098 854
161.77 -94.040398 854
162.50301 -93.926498 853
163.425 -93.922798 853
164.155 -93.808998 852
165.075 -93.805199 852
165.802 -93.691399 851
166.72099 -93.687599 851
167.444 -93.573799 850
168.362 -93.569901 850
169.28 -93.5662 850
170.19901 -93.562302 850
170.91499 -93.448402 849
171.832 -93.444603 849
172.54601 -93.330704 848
173.461 -93.326797 848
174.17101 -93.212898 847
175.08501 -93.209 847
175.79201 -93.095001 846
176.705 -93.091103 846
177.407 -92.977097 845
178.108 -92.863197 844
179.019 -92.8592 844
179.929 -92.855301 844
180.839 -92.851303 844
181.534 -92.737297 843
182.44299 -92.733299 843
183.134 -92.619301 842
184.04201 -92.615303 842
184.73 -92.501297 841
185.416 -92.387199 840
186.099 -92.273201 839
186.78 -92.159203 838
187.683 -92.155098 838
188.36099 -92.0411 837
189.26199 -92.037003 837
189.936 -91.922997 836
190.83701 -91.9189 836
191.507 -91.804802 835
192.40601 -91.800697 835
193.30499 -91.7966 835
194.437 -91.902397 836
195.336 -91.898201 836
196.23599 -91.893997 836
197.13499 -91.889801 836
198.035 -91.885597 836
198.93401 -91.881401 836
200.07201 -91.987099 837
200.972 -91.982903 837
201.87199 -91.978699 837
202.772 -91.974403 837
203.42799 -91.860298 836
204.327 -91.856003 836
205.22501 -91.8517 836
206.123 -91.847397 836
207.022 -91.843102 836
207.92 -91.838799 836
208.56799 -91.724602 835
209.465 -91.720299 835
210.36099 -91.716003 835
211.258 -91.711601 835
212.15401 -91.707199 835
213.05 -91.702904 835
214.203 -91.808296 836
215.10001 -91.803902 836
215.99699 -91.7995 836
216.894 -91.795097 836
218.05099 -91.900497 837
218.94901 -91.896103 837
219.847 -91.891602 837
220.744 -91.8871 837
221.90601 -91.992401 838
222.80499 -91.987999 838
223.703 -91.983498 838
224.601 -91.978996 838
225.76801 -92.084198 839
226.66701 -92.079697 839
227.83701 -92.184898 840
229.00999 -92.2901 841
230.18401 -92.395302 842
231.36 -92.500504 843
232.26199 -92.495903 843
233.442 -92.600998 844
234.345 -92.596397 844
235.52699 -92.7015 845
236.43201 -92.696899 845
237.617 -92.801903 846
238.522 -92.797302 846
239.71001 -92.902298 847
240.89999 -93.007301 848
242.092 -93.112297 849
243.286 -93.2173 850
244.48199 -93.322197 851
245.681 -93.427101 852
247.17 -93.641701 854
248.373 -93.746597 855
249.57899 -93.851402 856
250.786 -93.956299 857
252.289 -94.170799 859
253.50101 -94.275597 860
255.01199 -94.489998 862
256.229 -94.594704 863
257.746 -94.809097 865
259.26801 -95.023399 867
260.79401 -95.237701 869
262.02301 -95.3424 870
263.556 -95.556602 872
265.09299 -95.770798 874
266.634 -95.985001 876
267.87399 -96.0896 877
269.422 -96.303703 879
270.97501 -96.517799 881
272.84 -96.8414 884
153.267 -95.340202 874
153.68401 -95.009399 871
154.09399 -94.678596 868
154.498 -94.3479 865
155.255 -94.235199 864
155.64799 -93.904503 861
156.39799 -93.791801 860
156.963 -93.570099 858
157.707 -93.457497 857
158.44901 -93.344803 856
159.189 -93.232201 855
159.92599 -93.119499 854
160.662 -93.006798 853
161.395 -92.894096 852
162.31599 -92.890503 852
163.237 -92.886803 852
164.158 -92.883102 852
165.07899 -92.879402 852
165.80499 -92.766701 851
166.72501 -92.762901 851
167.448 -92.6502 850
168.366 -92.6465 850
169.08501 -92.533699 849
170.002 -92.5299 849
170.91901 -92.5261 849
171.836 -92.522301 849
172.549 -92.4095 848
173.25999 -92.2967 847
174.175 -92.2929 847
174.882 -92.180099 846
175.795 -92.176201 846
176.70799 -92.172302 846
177.411 -92.059502 845
178.112 -91.946602 844
179.02299 -91.942703 844
179.933 -91.938797 844
180.843 -91.934799 844
181.53799 -91.821999 843
182.44701 -91.818001 843
183.138 -91.705101 842
184.04601 -91.701202 842
184.73399 -91.588303 841
185.42 -91.475304 840
186.103 -91.362503 839
187.007 -91.358498 839
187.687 -91.245598 838
188.59 -91.241501 838
189.26601 -91.128601 837
190.168 -91.124496 837
190.841 -91.011597 836
191.51199 -90.898697 835
192.411 -90.8946 835
193.30901 -90.890503 835
194.44099 -90.9953 836
195.34 -90.991096 836
196.24001 -90.987 836
197.13901 -90.982903 836
