ply
format ascii 1.0
comment PCL generated
element vertex 1535
property float x
property float y
property float z
element camera 0
property float view_px
property float view_py
property float view_pz
property float x_axisx
property float x_axisy
property float x_axisz
property float y_axisx
property float y_axisy
property float y_axisz
property float z_axisx
property float z_axisy
property float z_axisz
property float focal
property float scalex
property float scaley
property float centerx
property float centery
property int viewportx
property int viewporty
property float k1
property float k2
end_header
6.8316507 -27.176224 264.10223
6.6532965 -26.461578 263.66846
6.0417318 -25.356415 264.04776
5.8631506 -24.640862 263.61343
5.6846609 -23.925282 263.17914
5.5060797 -23.209724 262.74481
4.8933725 -22.099998 263.12131
4.7146578 -21.383499 262.68646
4.1012688 -20.271034 263.06131
3.9223289 -19.553642 262.62592
3.308259 -18.438446 262.99911
3.129097 -17.720169 262.56317
2.9500027 -17.001774 262.12723
2.3350363 -15.882973 262.49823
2.1557341 -15.163742 262.06177
1.9763412 -14.444542 261.62527
1.7969494 -13.725349 261.18878
1.1809444 -12.602005 261.55707
1.0014133 -11.881851 261.12006
1.2589979 -11.567863 259.87949
0.6423912 -10.441711 260.24612
0.4627924 -9.7216797 259.80911
0.28328037 -9.0016098 259.37216
-0.33422089 -7.8718719 259.7366
-0.51395988 -7.1508865 259.29907
-1.1321526 -6.0183792 259.66187
-1.3121014 -5.2965546 259.22382
-1.4919615 -4.5746994 258.78583
-2.1110468 -3.4385986 259.14642
-2.2912064 -2.7159348 258.70789
-2.4712744 -1.9932404 258.26935
-2.6513424 -1.270546 257.83084
-2.8314104 -0.54785156 257.39233
-3.0114574 0.17476654 256.95386
-3.6321106 1.317131 257.31064
-3.8123884 2.0406723 256.87161
-4.4336395 3.1858292 257.22678
-4.6140394 3.9102402 256.78726
-5.2359562 5.0580826 257.14078
-5.4166517 5.7832794 256.70074
-6.0392389 6.9337997 257.05264
-6.2200727 7.6599655 256.61206
-6.4009085 8.3861313 256.17148
-7.0243931 9.5402298 256.52121
-7.2054367 10.267235 256.08014
-7.3864803 10.994225 255.63904
-7.567503 11.721153 255.19801
-7.7485256 12.448067 254.75699
-7.9294376 13.174927 254.31602
-8.5543976 14.33535 254.66196
-8.73563 15.063103 254.22043
-9.3612556 16.226189 254.56474
-9.9872169 17.390999 254.90805
-10.613739 18.557678 255.25018
-10.795528 19.288071 254.8071
-11.422699 20.457344 255.14766
-11.60463 21.188675 254.70404
-11.786606 21.919815 254.2605
-12.414675 23.09269 254.59888
-12.596792 23.824776 254.15479
-12.778978 24.556747 253.71074
-12.961163 25.288719 253.26669
-13.590248 26.466064 253.6024
-13.772552 27.198898 253.15787
-14.402304 28.378914 253.49196
-14.58482 29.112602 253.04692
-15.215151 30.295334 253.37941
-15.397871 31.029839 252.93387
-15.580574 31.764275 252.48837
-15.763275 32.498711 252.04286
-16.394693 33.685783 252.37271
-17.026548 34.874619 252.70151
-17.209686 35.610802 252.25493
-17.842119 36.802345 252.58212
-18.025448 37.539291 252.1351
-18.658548 38.733521 252.46066
-18.842085 39.471283 252.01314
-19.475832 40.668098 252.33713
-20.11006 41.866837 252.65994
-20.744709 43.067253 252.98175
-20.928782 43.807571 252.53271
-21.564093 45.010651 252.85291
-21.748373 45.751808 252.40338
-21.932566 46.493004 251.95387
-22.568823 47.699478 252.27194
-22.753201 48.441422 251.82199
-23.38995 49.650642 252.13849
-24.027224 50.861595 252.45389
-24.212021 51.605217 252.00291
-24.396837 52.348915 251.55188
-25.03488 53.563332 251.86525
-25.673401 54.779655 252.17743
-26.312336 55.997658 252.48862
-26.497738 56.74369 252.03616
-27.137257 57.964424 252.34573
-27.322865 58.711296 251.89278
-27.963055 59.934685 252.20073
-28.603741 61.159706 252.50764
-29.244778 62.386528 252.81352
-29.886349 63.615089 253.11829
-30.072704 64.365334 252.66333
-30.714851 65.596596 252.96651
-30.901436 66.347771 252.51099
-31.544117 67.581551 252.81268
-31.730869 68.333412 252.35675
-32.374306 69.569832 252.65678
-33.018204 70.808113 252.9557
-33.662434 72.048103 253.25363
-33.84972 72.802498 252.79622
-34.49477 74.045357 253.09235
-34.682079 74.799843 252.63486
-35.327782 76.045753 252.9292
-35.973705 77.292519 253.22301
-36.620037 78.540947 253.51581
-37.72551 80.284187 254.55841
22.103832 -76.82869 282.29349
21.92783 -76.125435 281.86639
21.751823 -75.42218 281.4393
21.575821 -74.718933 281.01221
21.399818 -74.015678 280.58511
21.22377 -73.312263 280.1579
21.047657 -72.608963 279.73071
20.8717 -71.905502 279.30356
20.695633 -71.202003 278.87631
20.519588 -70.498581 278.4491
20.343523 -69.795082 278.02185
20.167526 -69.091461 277.59457
19.991436 -68.387871 277.16727
19.815439 -67.68425 276.73999
19.639332 -66.980576 276.31262
19.04076 -65.933403 276.72641
18.86451 -65.228775 276.29852
18.688242 -64.524063 275.87057
18.088642 -63.473167 276.28201
17.912144 -62.76754 275.85352
17.735733 -62.061871 275.42505
17.559216 -61.356155 274.99652
17.382694 -60.650444 274.56796
17.206263 -59.944695 274.13947
17.029724 -59.238892 273.71085
16.853271 -58.533058 273.28229
16.676733 -57.827263 272.8537
16.500259 -57.121342 272.42505
16.323788 -56.415421 271.99643
16.147316 -55.709503 271.56781
15.970841 -55.003586 271.13919
15.368168 -53.939571 271.54279
15.191443 -53.232651 271.11356
15.014722 -52.525726 270.68433
14.411109 -51.457947 271.08563
14.234245 -50.750069 270.65585
14.05727 -50.042145 270.22601
13.880408 -49.334267 269.79626
13.275624 -48.261806 270.1947
13.098512 -47.552925 269.76434
12.493151 -46.477753 270.16119
12.315786 -45.767868 269.73022
12.138444 -45.058067 269.29929
11.961079 -44.348179 268.86832
11.354549 -43.268326 269.26233
11.176977 -42.557602 268.83084
10.999473 -41.84676 268.39932
10.821859 -41.135872 267.96774
10.644356 -40.42503 267.53622
10.46685 -39.714188 267.10471
10.289257 -39.00338 266.67316
9.6809635 -37.916069 267.06271
9.5032187 -37.204254 266.63058
9.3254719 -36.492439 266.19849
9.1477242 -35.780621 265.76639
8.9699745 -35.06879 265.33426
8.3603134 -33.97599 265.72049
8.1824226 -33.263206 265.28784
8.0044384 -32.550446 264.85516
7.8265457 -31.83765 264.42252
7.2157402 -30.740265 264.80594
7.0376186 -30.02655 264.37271
6.4261265 -28.926418 264.75449
6.2477741 -28.211784 264.32071
6.0694227 -27.49715 263.88693
5.8910704 -26.782513 263.45319
5.7128067 -26.067841 263.01944
5.1000357 -24.962189 263.39789
4.9214563 -24.246643 262.96356
4.742877 -23.531097 262.52924
4.5643883 -22.815521 262.09497
3.9504786 -21.705307 262.47064
3.3362007 -20.593216 262.84525
3.157259 -19.875828 262.40985
2.9782228 -19.158451 261.97443
2.3630505 -18.042786 262.34683
2.1838913 -17.324512 261.91092
2.0047274 -16.606236 261.47498
1.3886166 -15.486809 261.84512
1.2093143 -14.767574 261.40866
1.0299444 -14.048462 260.97223
0.85064316 -13.329231 260.53577
0.67127132 -12.610123 260.09933
0.49199104 -11.890968 259.6629
0.31271076 -11.171822 259.2265
-0.30510712 -10.045174 259.59232
-0.48461628 -9.3251038 259.15533
-1.1031895 -8.1958084 259.51947
-1.2828417 -7.4747849 259.08197
-1.9019918 -6.3427734 259.44455
-2.0819387 -5.6209564 259.0065
-2.2618904 -4.8991318 258.56848
-2.4417496 -4.177269 258.13046
-3.0620279 -3.0407486 258.49026
-3.6826954 -1.9022675 258.84894
-3.8629932 -1.1786423 258.40988
-4.0432692 -0.45511627 257.97086
-4.2235479 0.26841736 257.53183
-4.4038248 0.99195099 257.0928
-5.0258284 2.1357803 257.44821
-5.2063141 2.8601456 257.0087
-5.8290062 4.0067444 257.36243
-6.0096998 4.7319489 256.92239
-6.6329708 5.8812485 257.27457
-6.8138962 6.6073761 256.83395
-6.994729 7.3335419 256.39337
-7.1755438 8.0596237 255.95285
-7.7999201 9.2133484 256.30231
-7.9809628 9.9403458 255.86124
-8.6060076 11.096756 256.20908
-8.7872591 11.824593 255.76749
-8.9685097 12.552422 255.3259
-9.1497431 13.280182 254.88437
-9.330883 14.007973 254.44286
-9.957283 15.169807 254.7874
-10.584015 16.333366 255.13095
-11.211288 17.498711 255.47336
-11.393078 18.229103 255.03027
-12.020935 19.397171 255.37109
-12.20293 20.12838 254.92749
-12.831455 21.299133 255.26668
-13.013683 22.031265 254.82253
-13.195889 22.763313 254.37842
-13.825289 23.937576 254.71548
-14.007723 24.670547 254.27081
-14.190025 25.403389 253.82629
-14.37244 26.136276 253.38168
-15.002838 27.314911 253.71613
-15.18539 28.048759 253.27098
-15.816456 29.23008 253.60381
-15.999199 29.964684 253.1582
-16.630951 31.148743 253.48935
-16.813881 31.884094 253.0433
-16.996792 32.619362 252.59729
-17.629328 33.806984 252.92633
-17.812468 34.543175 252.47977
-18.445763 35.733437 252.80716
-19.079407 36.925484 253.13351
-19.262875 37.663383 252.68596
-19.897165 38.858025 253.01073
-20.080931 39.596725 252.56265
-20.715889 40.794044 252.8858
-21.351219 41.99324 253.20786
-21.987095 43.194237 253.52878
-22.171398 43.935478 253.07919
-22.807899 45.138985 253.39859
-22.992409 45.881058 252.9485
-23.629492 47.087288 253.2663
-23.814121 47.830231 252.81573
-23.998821 48.573059 252.36519
-24.636757 49.782722 252.68091
-25.27515 50.994209 252.99551
-25.460178 51.738731 252.54398
-25.645229 52.48336 252.09238
-26.284389 53.698311 252.40494
-26.924099 54.915077 252.71632
-27.564247 56.133583 253.02667
-27.74979 56.880577 252.57368
-28.390518 58.101799 252.88243
-28.576359 58.849602 252.42891
-29.859539 61.298973 253.04218
-30.501797 62.526314 253.34721
-33.449463 68.960793 253.64256
-33.636654 69.714394 253.18558
-34.73946 71.438255 254.23889
-34.927109 72.193703 253.78078
-35.572987 73.435951 254.07681
-35.760731 74.192177 253.61827
-36.407211 75.436836 253.91283
-37.054108 76.683189 254.20638
-37.701538 77.932076 254.49841
-38.349186 79.181801 254.78995
-38.997547 80.433998 255.07993
21.772825 -77.473709 281.23193
21.597073 -76.771469 280.80545
21.421207 -76.069168 280.37888
21.245434 -75.366837 279.95233
21.06955 -74.664459 279.52573
20.893753 -73.962044 279.09912
20.717937 -73.259544 278.67249
20.542122 -72.557045 278.24585
20.366306 -71.854546 277.81918
20.190468 -71.151962 277.39249
20.014721 -70.449341 276.96582
19.838863 -69.746674 276.53909
19.663027 -69.04409 276.1124
19.487236 -68.341309 275.68564
18.888054 -67.296417 276.10019
18.712057 -66.592796 275.67291
18.535927 -65.889046 275.24551
17.935915 -64.840439 275.6579
17.759647 -64.135735 275.22995
17.583378 -63.431023 274.802
17.407108 -62.726311 274.37408
17.230818 -62.021519 273.94608
17.054527 -61.316723 273.5181
16.452957 -60.261482 273.92648
16.276417 -59.555683 273.49789
16.099876 -58.849884 273.06931
16.349482 -58.497219 271.80606
15.746974 -57.438217 272.21216
15.570501 -56.7323 271.78354
15.39394 -56.026417 271.35489
15.217468 -55.320499 270.92627
14.613811 -54.256893 271.32956
14.437089 -53.549973 270.90033
14.260454 -52.843018 270.47113
13.65586 -51.77565 270.87216
13.478909 -51.067806 270.44235
13.301954 -50.35997 270.01257
13.125071 -49.652004 269.58276
12.519327 -48.58004 269.98099
12.342215 -47.871159 269.55063
12.1651 -47.162277 269.12024
11.987988 -46.453392 268.68988
11.810854 -45.744427 268.25946
11.203823 -44.666908 268.65436
11.026459 -43.957024 268.22339
10.849095 -43.247139 267.79239
10.671822 -42.537216 267.36145
10.063622 -41.455017 267.75351
9.8860283 -40.744209 267.32196
10.139818 -40.407524 266.06851
9.5310001 -39.322441 266.45889
9.3534908 -38.611591 266.02737
9.1759787 -37.900711 265.59583
8.9984627 -37.189812 265.16428
8.3884201 -36.100231 265.55188
8.2107611 -35.388374 265.11978
8.0330105 -34.676544 264.68768
7.8552604 -33.964714 264.25555
7.2442513 -32.870468 264.64041
7.0662689 -32.157711 264.20773
6.4545741 -31.060711 264.59091
6.2763638 -30.347038 264.15768
6.0982423 -29.633324 263.72449
5.9201207 -28.919617 263.29126
5.7419991 -28.205902 262.85806
5.128933 -27.103409 263.23792
4.9505825 -26.388786 262.80414
4.772233 -25.674156 262.37039
4.5939732 -24.959503 261.93665
3.9797668 -23.85244 262.31372
3.801281 -23.136875 261.87943
3.186388 -22.027069 262.25485
3.007678 -21.3106 261.82001
2.3921041 -20.198059 262.19376
2.2131586 -19.480652 261.75836
2.0342274 -18.763298 261.32297
1.4178438 -17.647125 261.69458
1.2386818 -16.928852 261.25864
0.62170029 -15.809883 261.62857
0.44231033 -15.090687 261.19211
0.26291847 -14.37149 260.75562
0.083637238 -13.652344 260.31918
-0.095643997 -12.933189 259.88278
-0.27492619 -12.214043 259.44638
-0.45431709 -11.49485 259.00989
-1.0730925 -10.36869 259.37546
-1.2526026 -9.6486282 258.93848
-1.8720675 -8.5197067 259.3024
-2.0517864 -7.7988129 258.86493
-2.6719418 -6.6671295 259.22714
-2.8518009 -5.9452667 258.78912
-3.0317488 -5.2234497 258.3511
-3.2115898 -4.5016708 257.91315
-3.832777 -3.3654404 258.27264
-4.0129147 -2.6428604 257.83417
-4.6347933 -1.5038757 258.19199
-4.8150711 -0.7803421 257.75296
-5.4375973 0.36123657 258.10925
-5.618103 1.0856857 257.66965
-6.2413168 2.2300339 258.02423
-6.4219446 2.9553604 257.58417
-6.6026592 3.6806488 257.1441
-7.2267694 4.8285751 257.49649
-7.4076052 5.5547485 257.05591
-8.0322943 6.7053757 257.40674
-8.2134485 7.4324265 256.96558
-7.9500875 7.7331467 255.73425
-8.5755367 8.8864288 256.0834
-8.7564907 9.613472 255.64236
-9.382515 10.769463 255.98993
-9.5637665 11.497292 255.54834
-10.19046 12.655968 255.89427
-10.371832 13.384674 255.45221
-10.553291 14.113342 255.0101
-10.734644 14.841972 254.56808
-11.362461 16.00515 254.91129
-11.990631 17.170135 255.25345
-12.619236 18.336876 255.59454
-12.801258 19.068184 255.15089
-13.430531 20.237579 255.49036
-13.612759 20.969719 255.0462
-13.794987 21.701859 254.60205
-14.425045 22.874817 254.93942
-14.607483 23.607796 254.49477
-14.789808 24.340714 254.05017
-14.972221 25.073608 253.60558
-15.60339 26.250992 253.94025
-15.785923 26.984756 253.49515
-16.417778 28.164894 253.82816
-16.600502 28.899414 253.3826
-17.233028 30.082253 253.71397
-17.415958 30.817589 253.26793
-17.59882 31.553062 252.82184
-17.781731 32.28833 252.37584
-18.415249 33.475533 252.70461
-19.049295 34.664467 253.03227
-19.683712 35.855278 253.35886
-20.318546 37.047752 253.68442
-20.502241 37.786568 253.2363
-21.137764 38.981796 253.5602
-21.321648 39.721367 253.11163
-21.957821 40.919197 253.43394
-22.594379 42.118988 253.75513
-23.231426 43.32032 254.0753
-23.415869 44.062523 253.62518
-24.053604 45.266617 253.9437
-24.238321 46.009537 253.4931
-24.876614 47.216255 253.81006
-25.061451 47.960045 253.35898
-25.700413 49.169441 253.67433
-26.33979 50.380516 253.98865
-26.525066 51.12606 253.5365
-26.710213 51.871468 253.08449
-26.895489 52.617012 252.63235
-27.535862 53.832466 252.94406
-28.176785 55.049736 253.25462
-28.81805 56.268791 253.56415
-29.003826 57.016701 253.11061
-29.645741 58.23835 253.41856
-29.831806 58.987068 252.96449
21.268166 -77.416618 279.74496
21.092621 -76.71521 279.31897
20.916988 -76.013832 278.89297
20.741423 -75.31234 278.46692
20.565767 -74.610878 278.04086
20.390202 -73.909386 277.61484
20.214615 -73.207802 277.18875
20.039009 -72.506142 276.76263
19.863422 -71.804558 276.33655
19.264425 -70.764771 276.75366
19.088589 -70.062187 276.32697
18.912819 -69.359482 275.90027
18.736961 -68.656815 275.47351
18.561085 -67.954071 275.04672
17.960781 -66.908638 275.46048
17.784672 -66.204971 275.03314
17.608654 -65.501266 274.6058
17.432613 -64.79747 274.17844
16.831142 -63.74736 274.58936
16.654873 -63.042652 274.16141
16.478582 -62.337856 273.73343
16.30229 -61.633064 273.30545
16.126003 -60.928268 272.87744
15.523131 -59.872559 273.28497
15.77347 -59.518475 272.02139
15.597157 -58.813599 271.59335
15.420936 -58.108681 271.16534
14.817126 -57.04921 271.57059
14.640655 -56.343292 271.14197
14.464183 -55.637371 270.71335
13.859543 -54.574181 271.11636
13.682821 -53.86726 270.68713
13.506099 -53.160339 270.2579
13.329397 -52.453499 269.82874
12.723593 -51.385628 270.22891
12.546708 -50.677666 269.7991
12.369755 -49.969826 269.36932
12.192871 -49.261864 268.93951
11.585917 -48.189392 269.33691
11.408805 -47.480511 268.90652
11.231691 -46.771629 268.47617
11.054556 -46.06266 268.04572
10.877443 -45.353779 267.61536
10.26918 -44.275673 268.00937
10.091816 -43.565784 267.5784
9.9145632 -42.855949 267.14749
9.7371998 -42.146061 266.71652
9.1277695 -41.063271 267.1077
9.3825407 -40.72617 265.85452
9.205265 -40.016247 265.42355
8.5951633 -38.930763 265.81311
8.4176483 -38.219879 265.38156
8.2401333 -37.508995 264.95004
8.0626183 -36.798103 264.51849
7.4514556 -35.707985 264.90527
7.2737966 -34.996124 264.47318
7.0960484 -34.284302 264.04108
6.483973 -33.190514 264.42563
6.3060818 -32.47773 263.99298
5.6933169 -31.381191 264.37585
5.5151973 -30.667484 263.94266
5.3370786 -29.953785 263.50946
5.1589589 -29.240078 263.07626
4.9808383 -28.526375 262.64307
4.3667927 -27.424297 263.02264
4.1884451 -26.709682 262.58887
4.0100994 -25.995068 262.15512
3.8318405 -25.280418 261.72137
3.2166538 -24.173775 262.09818
3.0381708 -23.458218 261.66391
2.4223013 -22.348843 262.03903
2.2435894 -21.63237 261.60422
1.6271296 -20.520226 261.97772
1.4480944 -19.802856 261.5423
1.2692509 -19.085464 261.10693
0.65188694 -17.969704 261.47827
0.47272682 -17.251427 261.04233
0.2935648 -16.533154 260.60638
-0.32471657 -15.413719 260.97546
-0.5039978 -14.694565 260.53906
-0.68327904 -13.975426 260.10266
-0.86267185 -13.256218 259.66617
-1.0419531 -12.537071 259.22977
-1.2212334 -11.817924 258.79333
-1.8409901 -10.692177 259.15863
-2.0205002 -9.9721146 258.72168
-2.6409464 -8.8436127 259.0853
-2.8206644 -8.1227036 258.64783
-3.4417105 -6.9914093 259.0098
-3.6216393 -6.2696609 258.57181
-3.8014984 -5.5478058 258.13379
-4.4235315 -4.412941 258.49356
-5.045908 -3.2762985 258.85229
-5.2262077 -2.552681 258.41321
-5.4065065 -1.8290558 257.97415
-6.0297832 -0.68881989 258.33069
-6.2102909 0.035636902 257.89111
-6.8342552 1.1786423 258.24597
-7.0149698 1.9039307 257.80591
-7.6395359 3.049736 258.15912
-7.8204603 3.775856 257.71851
-8.0013151 4.5021057 257.27789
-8.6268463 5.6513748 257.62897
-8.8079109 6.3784637 257.18784
-9.4340191 7.5304489 257.53729
-9.1700211 7.8325424 256.3056
-9.3510628 8.5595474 255.86453
-9.9777489 9.7142487 256.2124
-10.159 10.442085 255.77081
-10.340254 11.169914 255.32922
-10.967838 12.328209 255.67491
-11.595972 13.488304 256.01947
-11.777573 14.217934 255.57683
-11.959152 14.947487 255.13425
-12.588074 16.111122 255.47668
-13.217541 17.276581 255.81799
-13.399559 18.007881 255.37434
-14.029518 19.176079 255.71407
-14.211834 19.90818 255.2699
-14.842442 21.078972 255.60803
-15.024807 21.812057 255.16336
-15.207243 22.545029 254.7187
-15.838743 23.719414 255.05466
-16.021366 24.45314 254.60956
-16.203922 25.186989 254.16441
-16.8363 26.364876 254.49826
-17.019062 27.099564 254.0526
-17.652132 28.28022 254.38477
-17.834995 29.015694 253.93869
-18.017944 29.751129 253.49258
-18.651888 30.935295 253.82262
-18.834957 31.6716 253.37602
-19.018101 32.407791 252.92946
-19.652828 33.595505 253.25739
-19.836086 34.332565 252.81035
-20.471485 35.522957 253.13664
-21.1073 36.715019 253.46193
-21.743574 37.908928 253.7861
-22.380219 39.104698 254.10918
-22.564331 39.845192 253.66005
-23.201714 41.043526 253.98154
-23.839441 42.243652 254.30197
-24.47765 43.445702 254.62125
-24.662392 44.18869 254.17061
-24.847061 44.931816 253.71994
-25.486103 46.137207 254.03717
-26.125607 47.344444 254.3533
-26.310677 48.089149 253.90167
-26.950825 49.298973 254.21622
-27.591324 50.510597 254.52974
-27.77681 51.256966 254.07709
-28.417995 52.471352 254.38892
-28.603668 53.218483 253.93582
-28.789276 53.965721 253.48268
-29.431316 55.183525 253.79243
-30.073795 56.403084 254.10114
-30.259777 57.151848 253.64709
-30.902905 58.374001 253.95421
-31.546494 59.598 254.26021
21.188442 -77.690819 277.41214
20.590595 -76.659966 277.83417
20.415188 -75.959511 277.40872
20.239853 -75.258934 276.98325
20.064407 -74.558311 276.55771
19.88905 -73.857651 276.13217
19.713692 -73.156998 275.70663
19.538315 -72.456245 275.28107
19.362938 -71.755508 274.8555
19.187538 -71.05468 274.42987
19.012138 -70.353851 274.00424
18.836761 -69.653107 273.57867
18.236145 -68.610764 273.99377
18.060516 -67.909019 273.5676
17.459232 -66.864006 273.98108
17.283333 -66.161171 273.55423
16.68136 -65.113396 273.96603
16.505232 -64.409645 273.53864
16.32917 -63.705772 273.11121
16.15313 -63.00198 272.68384
15.977068 -62.298103 272.25641
15.373675 -61.244644 272.66476
15.197454 -60.53973 272.23676
15.021164 -59.834938 271.80875
14.844853 -59.130058 271.38074
14.668612 -58.42506 270.95267
14.492298 -57.720184 270.52463
13.887369 -56.660164 270.92905
13.710896 -55.954247 270.50043
13.105279 -54.891468 270.90317
12.928555 -54.184547 270.47394
12.751854 -53.477707 270.04477
12.575131 -52.770786 269.61554
11.968345 -51.703331 270.01544
11.791392 -50.995487 269.58566
11.614508 -50.287525 269.15585
11.437554 -49.579685 268.72604
11.260672 -48.871719 268.29623
10.652596 -47.798706 268.69284
10.475393 -47.089863 268.26242
10.29826 -46.380898 267.832
10.121146 -45.672016 267.40164
9.5119028 -44.594318 267.79538
9.3345604 -43.884518 267.36444
9.1572857 -43.174591 266.9335
8.9799223 -42.464706 266.5025
8.8026466 -41.754784 266.07156
8.6252823 -41.044899 265.64056
8.4480076 -40.334976 265.20963
7.8370094 -39.249851 265.59891
7.659409 -38.539024 265.16736
7.4818983 -37.828148 264.73581
7.3043828 -37.117264 264.30426
7.126955 -36.406334 263.87274
6.5145855 -35.315716 264.2587
6.3368382 -34.603897 263.8266
5.7237821 -33.510529 264.21088
5.5458937 -32.797752 263.77823
4.9321513 -31.70163 264.16086
4.7540336 -30.987938 263.72766
4.1396933 -29.889027 264.10861
3.9613476 -29.174419 263.67487
3.7830009 -28.459805 263.24112
3.6046562 -27.745197 262.80737
3.4263096 -27.030582 262.3736
2.8105984 -25.926186 262.75125
2.6321135 -25.210629 262.31696
2.4535427 -24.495121 261.88266
2.2750626 -23.779572 261.44839
1.6582108 -22.670605 261.82324
1.4795055 -21.954155 261.38843
0.86206245 -20.842415 261.76166
0.68311882 -20.125019 261.32626
0.50418854 -19.407665 260.89087
0.32527542 -18.690395 260.45557
-0.29331875 -17.574047 260.82599
-0.47237015 -16.855816 260.39014
-0.65153313 -16.137539 259.95419
-1.2709141 -15.017647 260.32254
-1.4503059 -14.298447 259.88605
-1.6295872 -13.5793 259.44962
-1.8088684 -12.860153 259.01321
-2.4293766 -11.735741 259.37878
-2.6088867 -11.015678 258.94183
-3.2300844 -9.8884964 259.30573
-3.4098253 -9.167511 258.86819
-4.0316019 -8.0376205 259.2305
-4.2115488 -7.3158035 258.79248
-4.8341026 -6.183197 259.15308
-5.0141935 -5.4604111 258.71451
-5.1942596 -4.7377243 258.276
-5.8176222 -3.6014786 258.63446
-6.4415312 -2.4634399 258.99176
-6.6219711 -1.7388687 258.55215
-6.8024769 -1.0144119 258.11258
-7.4271946 0.12725067 258.46771
-7.6079302 0.85263824 258.02759
-8.2332249 1.9970169 258.38113
-8.4141693 2.7232208 257.94049
-9.0401554 3.870369 258.29236
-9.2213097 4.5974197 257.8512
-9.4023743 5.3244934 257.41006
-10.029255 6.4752426 257.75977
-10.210529 7.2031555 257.31815
-10.3918 7.931076 256.8765
-10.572983 8.6590271 256.43488
-11.200972 9.8142014 256.78189
-11.382475 10.543037 256.33969
-11.563845 11.271744 255.89761
-12.19273 12.430504 256.24246
-12.821983 13.591148 256.58618
-13.003796 14.321617 256.14304
-13.185608 15.052086 255.69991
-13.815735 16.21624 256.0415
-13.997776 16.947617 255.59781
-14.628572 18.114449 255.93781
-14.810801 18.846581 255.49365
-15.442177 20.016129 255.83203
-15.624521 20.74913 255.38739
-15.80698 21.482185 254.94269
-16.439232 22.655243 255.27893
-17.072033 23.830101 255.61404
-17.254818 24.564857 255.16835
-17.437582 25.299545 254.7227
-18.071194 26.478035 255.05565
-18.254074 27.213585 254.60953
-18.888355 28.394753 254.94084
-19.071445 29.131142 254.4942
-19.254627 29.8675 254.04755
-19.437698 30.603806 253.60095
-20.073059 31.789314 253.92966
-20.25634 32.526459 253.48256
-20.892281 33.714684 253.80965
-21.075768 34.45266 253.36205
-21.712265 35.643509 253.68758
-22.349312 36.836166 254.01198
-22.533218 37.575813 253.56335
-23.170822 38.771103 253.88622
-23.808975 39.968185 254.20793
-24.447456 41.166977 254.52866
-24.631941 41.90934 254.07843
-25.271198 43.110855 254.39746
-25.910698 44.314125 254.71552
-26.095661 45.058037 254.26431
-26.280544 45.801994 253.81313
-26.92094 47.00885 254.129
-27.56184 48.217339 254.44385
-28.203114 49.427711 254.75758
-28.388531 50.174202 254.3049
-29.672935 52.602013 254.92805
-29.858746 53.350105 254.47443
-30.501789 54.567589 254.78384
-30.687817 55.316505 254.3297
-31.331394 56.536522 254.63763
-31.517712 57.286232 254.18295
-32.161968 58.508934 254.48926
-32.806671 59.733467 254.79446
20.864761 -78.334793 276.35364
20.266071 -77.305313 276.77591
19.667015 -76.273956 277.19711
19.491589 -75.573418 276.77164
19.316231 -74.872757 276.3461
19.140808 -74.172218 275.92059
18.96545 -73.471558 275.49506
18.79007 -72.770813 275.06949
18.614605 -72.070107 274.64389
18.439316 -71.369324 274.21832
18.263916 -70.668503 273.79272
18.088428 -69.967712 273.36707
17.913099 -69.266762 272.94141
17.311203 -68.224037 273.35571
17.135643 -67.522171 272.9295
16.959995 -66.820343 272.50327
16.357248 -65.773811 272.91531
16.181438 -65.070938 272.48846
16.005539 -64.368111 272.06165
15.401855 -63.317822 272.47141
15.225814 -62.614033 272.04401
15.049753 -61.910156 271.61658
14.44515 -60.856194 272.02411
14.268929 -60.151276 271.5961
14.092616 -59.446396 271.16806
13.916307 -58.74152 270.74002
13.740063 -58.036522 270.31195
13.134083 -56.977039 270.71613
12.957611 -56.271122 270.28751
12.351012 -55.208755 270.69
12.174289 -54.501835 270.26077
11.997587 -53.794994 269.83157
11.820866 -53.088074 269.40234
11.213096 -52.02103 269.80197
11.036144 -51.313187 269.37219
10.85928 -50.605309 268.94244
10.682308 -49.897385 268.5126
10.505445 -49.189507 268.08282
10.328472 -48.481579 267.65298
9.7191658 -47.407974 268.04868
9.5420523 -46.699093 267.61832
9.3649387 -45.990211 267.18793
9.1878242 -45.28133 266.75757
8.5773716 -44.203125 267.15048
8.4000072 -43.49324 266.71951
8.2227335 -42.783318 266.28854
8.0453901 -42.073517 265.8576
7.8681145 -41.363594 265.42667
7.6907301 -40.653625 264.99561
7.0787683 -39.568981 265.38467
6.9012585 -38.858124 264.95316
6.7237487 -38.147255 264.52161
6.5462365 -37.436375 264.09009
6.3687215 -36.725494 263.65854
6.1912074 -36.01461 263.22699
5.5776262 -34.923485 263.61212
4.9636817 -33.830505 263.99615
4.7857046 -33.117767 263.56348
4.6078186 -32.404999 263.13086
3.9929576 -31.30835 263.51266
3.8147531 -30.5947 263.07944
3.1992035 -29.495296 263.45959
3.0208588 -28.780693 263.02582
2.8425159 -28.066093 262.5921
2.6642628 -27.351452 262.15836
2.48592 -26.636852 261.72461
1.8690023 -25.53196 262.10144
1.6905222 -24.816425 261.66714
1.5119514 -24.10091 261.23285
0.89421368 -22.99234 261.60748
0.71550751 -22.27589 261.17264
0.09708786 -21.164581 261.54562
-0.081856728 -20.447182 261.11023
-0.26076698 -19.729916 260.6749
-0.43969917 -19.012562 260.23953
-1.0592546 -17.896706 260.60971
-1.238328 -17.178394 260.17383
-1.4174671 -16.460205 259.73795
-2.0378523 -15.340637 260.10593
-2.2172213 -14.621529 259.66949
-2.3965025 -13.902374 259.23309
-2.5757856 -13.183228 258.79666
-3.1972752 -12.059227 259.16199
-3.3767843 -11.339157 258.72501
-3.9989614 -10.212402 259.08862
-4.1785927 -9.4914627 258.65118
-4.8014612 -8.3619461 259.01315
-4.9813204 -7.6400757 258.57513
-5.6048555 -6.5078812 258.93546
-5.7849236 -5.7851868 258.49695
-5.9649916 -5.0624924 258.05841
-6.5893335 -3.9266586 258.4166
-7.2141361 -2.7890015 258.77365
-7.3946629 -2.0644608 258.33401
-8.0201302 -0.92412567 258.68945
-8.2008686 -0.19875336 258.24933
-8.8269138 0.94429779 258.60315
-9.0078602 1.6705093 258.16251
-9.6345978 2.8163223 258.51465
-9.8156815 3.5434875 258.07349
-9.9967461 4.2705688 257.63235
-10.177811 4.9976501 257.19122
-10.805676 6.1479721 257.54065
-10.986946 6.8758926 257.099
-11.168217 7.6038132 256.65735
-11.796959 8.7576523 257.00464
-11.978371 9.4865265 256.56247
-12.607777 10.643044 256.90814
-12.789398 11.372749 256.46545
-12.971001 12.102379 256.02283
-13.601238 13.262611 256.3663
-14.231979 14.424469 256.70871
-14.413925 15.155891 256.26505
-15.045361 16.320518 256.60577
-15.22752 17.052773 256.16162
-15.859526 18.220108 256.50076
-16.041916 18.953285 256.05603
-16.674572 20.123207 256.39359
-16.857166 20.857224 255.94835
-17.039743 21.591148 255.50316
-17.222408 22.325035 255.05794
-17.855991 23.499474 255.39287
-18.490124 24.675713 255.72667
-18.673138 25.411392 255.28041
-18.856112 26.146919 254.83426
-19.491051 27.326782 255.16589
-19.674255 28.063217 254.71918
-20.309841 29.245689 255.04922
-20.49316 29.982986 254.60204
-20.676548 30.720177 254.15486
-21.313034 31.906242 254.48274
-21.496544 32.644295 254.0351
-22.133587 33.832985 254.36142
-22.317301 34.571877 253.91325
-22.955101 35.763206 254.23795
-23.593269 36.956398 254.56152
-23.777407 37.696968 254.11235
-24.416216 38.892754 254.43437
-24.600563 39.634163 253.98468
-25.240067 40.83271 254.30502
-25.879967 42.03286 254.62442
-26.520256 43.234947 254.94266
-27.161053 44.43869 255.25984
-27.346165 45.183556 254.80811
-27.531162 45.928375 254.35645
-28.172859 47.135704 254.67146
-28.814877 48.344749 254.98549
-29.457363 49.555626 255.2984
-34.528111 60.341454 256.08832
19.5189 -77.619431 276.56464
18.91884 -76.588402 276.9855
18.743414 -75.887863 276.56003
18.567989 -75.187325 276.13452
18.392632 -74.486664 275.70898
18.217186 -73.786041 275.28345
18.041828 -73.085381 274.85791
17.86643 -72.384552 274.43228
17.691051 -71.683807 274.00671
17.515673 -70.983063 273.58112
17.340254 -70.28215 273.15546
17.164768 -69.581367 272.7298
16.989437 -68.880417 272.30414
16.814018 -68.179504 271.87848
16.21077 -67.135315 272.29141
16.035099 -66.433403 271.86511
15.859519 -65.731453 271.43884
15.255244 -64.68354 271.84949
15.079432 -63.980667 271.42267
14.47456 -62.929958 271.83163
14.298498 -62.226082 271.40421
13.692914 -61.172531 271.81146
13.516604 -60.467651 271.38342
13.340382 -59.762737 270.95538
13.16407 -59.057861 270.52737
12.557339 -57.99971 270.93182
12.380865 -57.293793 270.5032
11.773517 -56.232758 270.90594
11.596725 -55.525959 270.47675
11.420022 -54.819122 270.04758
11.243322 -54.112282 269.61838
11.066599 -53.405357 269.18915
10.457848 -52.33873 269.5885
10.280897 -51.630886 269.15872
10.104033 -50.923012 268.72897
9.927083 -50.215168 268.29916
9.7501965 -49.507202 267.86935
9.573246 -48.799362 267.43958
9.3963604 -48.0914 267.00977
8.7858448 -47.017288 267.40463
8.6087303 -46.308407 266.97424
8.4316177 -45.599525 266.54388
8.2544804 -44.89056 266.11346
7.642839 -43.811935 266.50558
7.4654775 -43.102047 266.07458
6.85321 -42.020546 266.46503
6.6756177 -41.309738 266.03348
6.4981151 -40.598892 265.60196
6.3206153 -39.888069 265.17047
6.1430187 -39.177258 264.73892
5.9655089 -38.466389 264.30737
5.7880011 -37.755531 263.87585
5.610486 -37.044655 263.44434
5.4330626 -36.33374 263.01282
4.8185043 -35.243038 263.39767
4.6407628 -34.531242 262.96558
4.0256062 -33.437756 263.34875
3.8476334 -32.725029 262.91611
3.6697493 -32.012268 262.48349
3.0536799 -30.915123 262.86447
2.875566 -30.201439 262.43127
2.2588091 -29.10154 262.81058
2.0804682 -28.386948 262.37683
1.9021263 -27.672356 261.94308
1.7238741 -26.957729 261.50937
1.105978 -25.85326 261.88593
0.92749786 -25.137722 261.45166
0.74893188 -24.422226 261.01736
0.1302166 -23.314075 261.39169
-0.048488617 -22.59763 260.95688
-0.66788769 -21.486748 261.32959
-0.84681034 -20.769432 260.89423
-1.4669094 -19.655754 261.26523
-1.6460476 -18.937561 260.82935
-1.8252096 -18.219288 260.3934
-2.0042639 -17.501057 259.95755
-2.1834221 -16.78278 259.52164
-2.3624763 -16.064552 259.08575
-2.9840517 -14.944561 259.45297
-3.606082 -13.822731 259.81906
-3.785594 -13.102661 259.38211
-3.9650831 -12.382675 258.94519
-4.1445942 -11.662613 258.50821
-4.7677517 -10.536263 258.87158
-4.9473839 -9.8153305 258.43411
-5.5712099 -8.6863022 258.79584
-5.751071 -7.9644394 258.35785
-6.3755836 -6.8326645 258.7179
-6.5556555 -6.1099625 258.27936
-6.7357235 -5.3872604 257.84085
-7.3610458 -4.2518539 258.19873
-7.9868307 -3.1146011 258.55554
-8.6130705 -1.9755096 258.91119
-8.7937164 -1.2500992 258.47107
-9.4206047 -0.10842133 258.82516
-9.6014824 0.61791229 258.38449
-10.229059 1.762352 258.73691
-10.410143 2.4895096 258.29572
-11.0383 3.636673 258.64655
-11.219593 4.3646774 258.20486
-11.400887 5.0926743 257.76318
-11.582182 5.8206787 257.32147
-11.763454 6.5486069 256.87982
-12.392857 7.7011337 257.22745
-12.574358 8.4299698 256.78525
-13.204451 9.585289 257.13116
-13.38607 10.314987 256.68848
-14.016918 11.472923 257.03275
-14.19875 12.203476 256.58957
-14.830173 13.364128 256.93225
-15.012211 14.09552 256.48856
-15.644215 15.258881 256.82962
-15.826462 15.991089 256.38544
-16.459244 17.157188 256.72479
-17.092377 18.325066 257.06314
-17.274971 19.059074 256.61789
-17.908749 20.229546 256.95465
-18.091663 20.964439 256.50882
-18.274448 21.699203 256.06311
-18.457253 22.434059 255.61737
-19.092161 23.609047 255.95139
-19.275154 24.344635 255.50519
-19.910635 25.522346 255.83762
-20.093838 26.258781 255.3909
-20.27697 26.995338 254.94415
-20.91333 28.176552 255.27444
-21.096741 28.913826 254.82722
-21.733746 30.097626 255.15594
-21.917278 30.83577 254.70824
-22.554878 32.022362 255.03531
-22.738617 32.761353 254.5871
-23.376961 33.950508 254.91257
-24.015652 35.141441 255.237
-24.199718 35.882149 254.7878
-24.383875 36.622795 254.33856
-25.02346 37.817337 254.66083
-25.663464 39.01355 254.98206
-25.848061 39.755959 254.53175
-26.488663 40.954964 254.85135
-27.129772 42.155617 255.16989
-27.771275 43.358215 255.48729
-27.956387 44.103096 255.03555
-28.598515 45.308197 255.35143
-28.783855 46.053993 254.89912
-29.426647 47.261787 255.21338
-30.069881 48.471321 255.52658
-30.713463 49.682655 255.83873
-30.899338 50.430992 255.38493
19.197481 -78.263374 275.5072
18.5966 -77.233803 275.92841
18.421404 -76.53418 275.50345
18.246206 -75.834564 275.07852
18.070992 -75.134857 274.6535
17.895863 -74.43512 274.22855
17.293564 -73.399864 274.64627
17.118185 -72.69912 274.2207
16.942808 -71.998375 273.79514
17.195183 -71.635864 272.52844
17.019993 -70.935867 272.10333
16.416634 -69.895981 272.51828
16.241213 -69.195068 272.09262
16.065773 -68.494072 271.6669
15.890354 -67.793159 271.24121
15.285897 -66.748466 271.65332
15.110228 -66.046555 271.22702
14.934647 -65.344604 270.80075
14.32925 -64.296143 271.21057
14.153326 -63.593227 270.78366
13.547243 -62.542007 271.1918
13.371161 -61.838051 270.76434
13.195103 -61.134174 270.33691
13.019109 -60.430183 269.90945
12.411856 -59.374283 270.31476
12.235524 -58.669323 269.88666
11.62767 -57.610626 270.29031
11.451109 -56.904747 269.86166
10.842546 -55.843208 270.26358
10.665843 -55.136372 269.83441
10.489143 -54.429531 269.40521
10.31242 -53.72261 268.97598
9.7027102 -52.656475 269.37512
9.9589748 -52.308765 268.11752
9.7822514 -51.601845 267.68829
9.6055317 -50.89492 267.25906
9.428875 -50.187881 266.8298
8.817997 -49.117065 267.2261
8.6411152 -48.4091 266.7963
8.4642277 -47.701138 266.36646
7.8525243 -46.626602 266.76056
7.6754093 -45.917725 266.33017
7.4982758 -45.208755 265.89975
6.8856502 -44.130543 266.2916
6.7082887 -43.420658 265.86063
6.0950618 -42.339653 266.25082
5.9174705 -41.628845 265.81927
5.7399631 -40.918003 265.38776
5.5623722 -40.207199 264.95624
5.3848662 -39.496346 264.52472
5.2073579 -38.7855 264.0932
5.0298495 -38.074635 263.66165
4.8523421 -37.363777 263.23013
4.6749191 -36.652863 262.79861
4.059382 -35.562595 263.1832
3.8816404 -34.8508 262.7511
3.2655077 -33.757736 263.13403
3.0875368 -33.045021 262.70139
2.9096546 -32.332268 262.26877
2.292604 -31.235542 262.64948
2.1144929 -30.521873 262.21628
1.9363818 -29.808205 261.78311
1.3184185 -28.707809 262.16159
1.1400795 -27.993225 261.72784
0.96182919 -27.278606 261.29413
0.78349209 -26.56403 260.86041
0.1644783 -25.459026 261.23615
-0.014086723 -24.743538 260.80185
-0.19256115 -24.028023 260.36761
-0.81248665 -22.919376 260.74112
-1.4328632 -21.808914 261.11353
-1.6117859 -21.091599 260.67819
-2.2328434 -19.978416 261.04895
-2.4120064 -19.260139 260.61304
-2.5910559 -18.541908 260.17719
-2.7702188 -17.823635 259.74124
-2.9492722 -17.105408 259.30539
-3.1283216 -16.387177 258.86954
-3.7508774 -15.267601 259.23645
-3.9302492 -14.548485 258.80002
-4.5533991 -13.426109 259.16531
-4.7328911 -12.706131 258.72839
-5.356802 -11.581116 259.09204
-5.5365238 -10.860207 258.65454
-6.1610308 -9.732399 259.01654
-6.3409824 -9.0105743 258.57849
-6.9661579 -7.8800888 258.93884
-7.1462278 -7.1573944 258.50034
-7.7720947 -6.0241547 258.85904
-7.9523935 -5.3005295 258.41995
-8.578928 -4.1646118 258.77701
-9.2058964 -3.026947 259.13303
-9.3866348 -2.3015671 258.69287
-10.014206 -1.1611023 259.04721
-10.195169 -0.43480682 258.60651
-10.823412 0.70834351 258.95923
-11.452108 1.8533249 259.31085
-11.633427 2.5814133 258.86911
-11.81472 3.3094101 258.4274
-11.996012 4.0374146 257.98572
-12.177307 4.765419 257.54404
-12.807339 5.9157486 257.8924
-12.98875 6.6446304 257.45023
-13.170254 7.3734665 257.00803
-13.801098 8.5274353 257.35422
-13.982828 9.2571945 256.91147
-14.614319 10.413765 257.2561
-14.796169 11.144386 256.81287
-15.428345 12.303703 257.15582
-16.06089 13.464897 257.49768
-16.24325 14.197166 257.05341
-16.425428 14.929504 256.60919
-17.058851 16.094215 256.94891
-17.241348 16.827438 256.50409
-18.327164 18.429108 257.625
-18.510082 19.164009 257.17917
-18.692905 19.898933 256.73337
-18.875713 20.633781 256.28763
-19.058517 21.368637 255.84187
-19.694086 22.542328 256.17621
-20.330179 23.717735 256.50943
-20.513313 24.454292 256.06268
-20.696535 25.190811 255.61594
-21.333439 26.369858 255.94701
-21.516779 27.107246 255.49976
-22.154348 28.288963 255.82922
-22.792358 29.472435 256.15759
-22.976114 30.21151 255.70935
-23.159874 30.950569 255.26108
-23.798668 32.137596 255.58737
-23.982637 32.877495 255.1386
-24.622103 34.067192 255.46326
-25.262001 35.258644 255.78685
-26.086956 37.194351 255.65904
-26.271461 37.93679 255.20877
-26.912605 39.133636 255.52914
-27.097389 39.876801 255.0784
-27.739223 41.076393 255.39709
-28.381542 42.27755 255.71481
-29.024239 43.480568 256.03143
-29.209488 44.226402 255.57915
-29.852844 45.432098 255.89413
-30.038395 46.178734 255.44135
-30.682289 47.386978 255.75484
-31.326752 48.597115 256.06714
-31.971546 49.808952 256.37845
-32.157631 50.558128 255.92415
18.276321 -77.878372 274.87183
18.101357 -77.17968 274.44745
17.926388 -76.48098 274.02307
17.751402 -75.782196 273.59863
17.148668 -74.749153 274.01721
16.973454 -74.049446 273.59222
16.370033 -73.013649 274.00916
16.194654 -72.312904 273.58356
16.44792 -71.950012 272.31714
16.272747 -71.250107 271.89209
16.097557 -70.550117 271.46695
15.49295 -69.509552 271.88098
15.317553 -68.808723 271.45535
15.14213 -68.107811 271.02966
14.966782 -67.406784 270.60397
14.361002 -66.361534 271.01517
14.185421 -65.659576 270.5889
14.00975 -64.957664 270.1626
13.403143 -63.908703 270.57159
13.227314 -63.20575 270.14471
12.619997 -62.153942 270.55197
12.443935 -61.450066 270.12454
12.267853 -60.746109 269.69705
12.091771 -60.042152 269.26959
11.483309 -58.985744 269.67404
11.307064 -58.280746 269.24597
10.697914 -57.221581 269.64877
10.521441 -56.515663 269.22015
9.9116697 -55.453621 269.62125
9.7349663 -54.74678 269.19205
9.5581532 -54.039898 268.76279
8.9475527 -52.974136 269.16168
9.204731 -52.626137 267.90439
9.0280952 -51.919178 267.47519
8.8513536 -51.21217 267.0459
8.6746292 -50.505249 266.61667
8.4979763 -49.798206 266.18741
7.8859777 -48.726845 266.58289
7.7090034 -48.018921 266.15305
7.5321207 -47.310959 265.72324
6.9191999 -46.23592 266.11649
6.7420673 -45.526955 265.68607
6.1284618 -44.449154 266.07764
5.9511876 -43.739231 265.64667
5.3368931 -42.658672 266.03656
5.1593866 -41.94783 265.60507
4.9818163 -41.23711 265.17358
4.8043065 -40.526241 264.74203
4.1889377 -39.440987 265.12915
4.0111151 -38.729271 264.69705
3.8333797 -38.017502 264.26495
3.6557336 -37.305695 263.83292
3.4779983 -36.593925 263.40082
3.3002625 -35.882145 262.96875
3.1225224 -35.170357 262.53665
2.5054073 -34.077713 262.91931
2.3275299 -33.364975 262.48669
2.14956 -32.652264 262.05405
1.9716797 -31.939518 261.62143
1.3534217 -30.842297 262.00131
1.1753135 -30.128639 261.56815
0.99720335 -29.414974 261.13495
0.37812138 -28.314056 261.51263
0.19978428 -27.59948 261.07892
0.021449089 -26.884914 260.64517
-0.15679646 -26.170296 260.21146
-0.77701759 -25.064812 260.5864
-0.95548916 -24.349308 260.15213
-1.1340494 -23.633839 259.71786
-1.7551785 -22.524712 260.09055
-2.3766699 -21.413731 260.46219
-2.9987106 -20.300957 260.83267
-3.1778727 -19.58268 260.39673
-3.3569231 -18.864449 259.96088
-3.5360651 -18.146255 259.52499
-4.1591625 -17.028851 259.89273
-4.3384447 -16.3097 259.4563
-4.5177031 -15.590637 259.01996
-4.6969852 -14.871487 258.58353
-5.321208 -13.749565 258.94852
-5.9458704 -12.625885 259.31244
-6.1255913 -11.904984 258.87497
-6.7508535 -10.778503 259.23721
-6.9308043 -10.056679 258.79919
-7.5567331 -8.9275284 259.15982
-7.7367992 -8.2048264 258.72131
-8.3634186 -7.0729141 259.08029
-8.5437145 -6.3493042 258.6412
-9.1710052 -5.2147141 258.99854
-9.3515091 -4.4902573 258.55896
-9.9794827 -3.3529205 258.91464
-10.16013 -2.6275101 258.47452
-10.788773 -1.4874878 258.82855
-10.969627 -0.7612381 258.38794
-11.598848 0.38149261 258.74039
-12.228527 1.526062 259.09171
-12.858665 2.6724701 259.44193
-13.040188 3.4013977 258.99966
-13.221714 4.1303253 258.55743
-13.403214 4.8591614 258.11523
-13.584736 5.5880814 257.67297
-14.216103 6.7397995 258.02002
-14.397747 7.4695969 257.5773
-14.579456 8.1992722 257.13458
-15.21174 9.3546677 257.4794
-15.39357 10.085205 257.03619
-16.026428 11.243317 257.37943
-16.659927 12.403191 257.72147
-17.293663 13.564812 258.06253
-17.47616 14.298027 257.61774
-17.658546 15.031204 257.173
-18.293293 16.196465 257.51181
-18.475908 16.930557 257.06653
-19.111214 18.09845 257.40381
-19.746975 19.268181 257.73996
-19.93001 20.003952 257.29364
-20.113041 20.739723 256.84735
-20.296078 21.475487 256.40103
-20.932854 22.649689 256.73453
-21.570072 23.82563 257.06696
-21.753521 24.563072 256.61963
-21.936886 25.30056 256.17233
-22.574978 26.480019 256.50262
-22.758568 27.218422 256.05478
-23.397331 28.400551 256.38342
-24.036457 29.584564 256.71103
-24.220446 30.324562 256.26221
-24.404438 31.064545 255.81337
-25.044445 32.252068 256.13882
-25.684887 33.441353 256.4632
-25.869205 34.183052 256.0134
-26.510315 35.375015 256.33615
-28.348701 39.996895 255.62444
-28.991726 41.196915 255.94235
-29.635189 42.398689 256.25919
-30.279072 43.602142 256.57501
-30.46455 44.348885 256.12219
-31.1091 45.555016 256.4364
-31.754017 46.763023 256.74951
-32.399441 47.972656 257.06161
-33.045238 49.184166 257.37259
-33.231571 49.934349 256.91766
-33.878033 51.148537 257.22705
-34.064487 51.89959 256.77164
17.958004 -78.522125 273.81583
17.783268 -77.824348 273.392
17.608513 -77.12648 272.96811
17.00528 -76.095779 273.3876
16.830292 -75.396988 272.96317
16.226259 -74.36348 273.38089
16.051132 -73.663742 272.95593
15.875895 -72.963959 272.53088
15.700726 -72.264046 272.1058
15.95543 -71.90258 270.84079
15.780467 -71.203514 270.41623
15.175105 -70.164276 270.83054
14.999937 -69.464371 270.40546
14.393976 -68.42234 270.81812
14.218536 -67.721344 270.3924
14.043117 -67.020439 269.96671
13.867655 -66.319359 269.54092
13.260525 -65.272644 269.95074
13.084945 -64.570694 269.52451
12.477127 -63.521225 269.93265
11.868833 -62.46983 270.3396
11.692679 -61.765991 269.91217
11.516601 -61.062035 269.48468
10.907473 -60.006924 269.88943
10.731161 -59.302048 269.4614
10.121258 -58.244217 269.86447
9.9447842 -57.5383 269.43585
9.7682247 -56.832417 269.0072
9.5917511 -56.126495 268.57858
8.9807663 -55.063946 268.97882
8.8040676 -54.357109 268.54965
8.6273432 -53.650185 268.12042
8.4506397 -52.943348 267.69125
8.2739201 -52.236427 267.26202
8.0971966 -51.529503 266.83279
7.9204512 -50.822502 266.4035
7.7438192 -50.11554 265.9743
7.1307483 -49.044632 266.36948
6.953866 -48.33667 265.93967
6.7769804 -47.628704 265.50986
6.6000972 -46.920742 265.08002
5.985971 -45.845196 265.47244
5.3713608 -44.767727 265.86368
5.1940203 -44.057922 265.43277
4.5788097 -42.977657 265.82236
4.4012384 -42.266937 265.39087
4.2237358 -41.556091 264.95935
4.0461493 -40.845322 264.52783
3.4298029 -39.76049 264.91464
3.2520738 -39.048748 264.48257
3.0743437 -38.33699 264.05051
2.8966064 -37.625229 263.61844
2.7188721 -36.91346 263.18637
2.5411367 -36.201687 262.7543
2.3634887 -35.489872 262.32224
1.7453089 -34.39769 262.70459
1.5674305 -33.684959 262.27197
1.3895531 -32.972221 261.83936
1.2116756 -32.259491 261.40674
0.59244013 -31.162689 261.78635
0.41433191 -30.449028 261.35318
0.23622656 -29.735382 260.92001
-0.38392258 -28.634926 261.29739
-0.56216812 -27.920319 260.86371
-0.7405014 -27.205757 260.42996
-1.3614731 -26.101608 260.80518
-1.5399456 -25.386101 260.37091
-1.7185059 -24.670631 259.93665
-1.8969736 -23.955139 259.50241
-2.5190821 -22.846424 259.87482
-3.1415567 -21.735855 260.24615
-3.3204699 -21.018581 259.81085
-3.9437199 -19.905304 260.18051
-4.1227694 -19.187073 259.74463
-4.3019323 -18.468796 259.30872
-4.9259911 -17.351887 259.67621
-5.1052704 -16.632736 259.23981
-5.2845325 -15.913673 258.80344
-5.9095068 -14.793079 259.1687
-6.0889978 -14.073097 258.73178
-6.714571 -12.949707 259.0954
-7.3406754 -11.8246 259.45792
-7.5205135 -11.102829 259.01996
-8.1473055 -9.9749603 259.3808
-8.3273735 -9.2522583 258.94229
-8.5074434 -8.5295639 258.50375
-9.1350412 -7.3980637 258.86246
-9.3153381 -6.6744461 258.42337
-9.9436073 -5.5402756 258.78046
-10.124113 -4.8158188 258.34085
-10.752977 -3.6788559 258.69629
-10.933716 -2.9534836 258.25613
-11.563229 -1.8139191 258.60999
-11.744104 -1.0875931 258.16931
-12.374306 0.054733276 258.52148
-13.004948 1.1987991 258.87259
-13.636066 2.3448029 259.2225
-13.817589 3.0737228 258.78027
-13.999111 3.8026505 258.33801
-14.180527 4.5315247 257.89584
-14.81275 5.6819534 258.2431
-14.994392 6.4117432 257.80035
-15.627195 7.564888 258.146
-15.809048 8.2955246 257.70276
-15.990902 9.0261536 257.25952
-16.624603 10.182892 257.603
-17.258739 11.341377 257.9454
-17.89325 12.501755 258.28671
-18.528309 13.663925 258.62689
-18.711037 14.398064 258.18152
-19.34656 15.562904 258.52014
-19.529495 16.29789 258.07428
-19.712345 17.032906 257.62842
-20.348854 18.201302 257.96487
-20.985826 19.371529 258.30017
-21.16909 20.108223 257.85333
-21.352268 20.844948 257.40646
-21.990112 22.018692 257.73965
-22.1735 22.756248 257.29233
-22.811924 23.932716 257.6239
-22.99552 24.67112 257.17606
-23.634607 25.850243 257.50601
-23.818413 26.589485 257.05765
-24.002213 27.328712 256.60928
-24.642183 28.51136 256.93713
-25.282524 29.695885 257.26385
-25.923283 30.882072 257.5896
-26.107727 31.623901 257.13968
-26.292065 32.365677 256.68982
-26.93372 33.555473 257.01337
-27.760586 35.490555 256.88492
-30.890778 42.518921 256.80307
-31.53587 43.722885 257.11807
-32.181328 44.928711 257.43198
-32.367249 45.677223 256.97809
-33.013355 46.885643 257.29041
-33.660011 48.095871 257.60162
17.038105 -78.137436 273.18118
16.863369 -77.439651 272.75735
16.688633 -76.741867 272.33353
16.08408 -75.710609 272.75211
15.909092 -75.011826 272.32767
15.734174 -74.312927 271.90323
15.559163 -73.614059 271.47873
15.384155 -72.915192 271.05426
15.209216 -72.216202 270.62973
15.034277 -71.517212 270.20523
14.427952 -70.478477 270.61929
14.252674 -69.778526 270.19415
14.077574 -69.078499 269.76907
13.470314 -68.035995 270.18088
13.294875 -67.334999 269.75513
13.119522 -66.633972 269.32944
12.511322 -65.587708 269.73895
12.335722 -64.885674 269.31262
11.726921 -63.836617 269.72049
11.551002 -63.133698 269.29361
10.941604 -62.081844 269.69983
10.331637 -61.028103 270.10486
10.155325 -60.323227 269.67682
9.9790144 -59.618347 269.24878
9.3681297 -58.560932 269.65155
9.1916561 -57.855011 269.22293
9.0151157 -57.149216 268.79434
8.838644 -56.443298 268.36572
8.6620827 -55.737415 267.93707
8.0498896 -54.674358 268.33649
7.8731661 -53.967438 267.90726
7.6964664 -53.260597 267.47809
7.95613 -52.91349 266.22244
7.7796388 -52.207489 265.79376
7.1663857 -51.139793 266.1904
6.9896417 -50.432789 265.76114
6.8129206 -49.725868 265.33191
6.6362643 -49.018826 264.90265
6.021843 -47.946453 265.29645
5.8449602 -47.238487 264.86664
5.2298503 -46.163353 265.25876
5.0527182 -45.454388 264.82834
4.4369202 -44.376495 265.21881
4.2596669 -43.666656 264.7879
4.0823011 -42.956772 264.35693
3.4656763 -41.87516 264.74518
