ply
format ascii 1.0
comment PCL generated
element vertex 1595
property float x
property float y
property float z
element camera 0
property float view_px
property float view_py
property float view_pz
property float x_axisx
property float x_axisy
property float x_axisz
property float y_axisx
property float y_axisy
property float y_axisz
property float z_axisx
property float z_axisy
property float z_axisz
property float focal
property float scalex
property float scaley
property float centerx
property float centery
property int viewportx
property int viewporty
property float k1
property float k2
end_header
72.308296 326.44745 255.01329
71.572449 327.24268 254.3754
70.837486 328.03622 253.73679
70.432556 328.80371 254.06294
69.69931 329.59396 253.42294
69.294807 330.36057 253.74875
68.890228 331.12714 254.07457
68.159157 331.91324 253.43282
67.754997 332.67899 253.75829
67.351372 333.44397 254.08339
66.947647 334.20889 254.40851
66.218666 334.99078 253.76501
65.815384 335.75485 254.08978
65.0877 336.53427 253.44522
64.685196 337.29666 253.76932
64.282349 338.05991 254.09372
63.556755 338.83511 253.44743
63.154686 339.59668 253.77116
62.430916 340.36862 253.12344
62.029278 341.12933 253.44684
61.627647 341.89005 253.77022
60.905529 342.65863 253.12111
60.504761 343.41769 253.44379
60.103474 344.17752 253.76683
59.38361 344.94199 253.11595
58.983192 345.70016 253.43829
58.582775 346.45834 253.76065
58.182365 347.21652 254.08299
57.464928 347.97592 253.43004
57.064949 348.73325 253.75203
56.348896 349.4902 253.09801
55.949783 350.24591 253.41931
55.235382 350.99951 252.7639
54.521507 351.75232 252.10812
54.123611 352.50546 252.42838
53.411469 353.25494 251.77119
53.013489 354.00806 252.09146
52.303082 354.75421 251.43288
51.906052 355.50571 251.75243
51.508942 356.25714 252.07199
51.111912 357.00864 252.39154
50.404018 357.74979 251.73088
50.007339 358.5004 252.05009
49.300758 359.23904 251.38835
48.904594 359.98886 251.70721
48.199661 360.72415 251.04408
47.804291 361.47226 251.36224
47.408909 362.2204 251.68042
47.013535 362.96851 251.99857
46.310844 363.69971 251.33368
45.916256 364.44611 251.65115
45.215309 365.17398 250.98486
44.820717 365.92038 251.30234
44.426559 366.66595 251.61948
43.727776 367.38968 250.95142
43.334053 368.13443 251.26819
42.940331 368.87918 251.58496
42.546604 369.62393 251.90175
42.4562 370.39301 253.20474
42.062035 371.13858 253.52187
41.668312 371.88333 253.83864
41.274498 372.62805 254.15544
40.880692 373.37274 254.47223
40.486965 374.11749 254.789
40.393002 374.89316 256.09485
39.99876 375.63867 256.41199
39.60495 376.38339 256.72876
39.210705 377.12891 257.0459
39.114922 377.90784 258.35315
38.720238 378.65421 258.67065
38.325912 379.39969 258.98782
37.931667 380.1452 259.30496
37.537342 380.89069 259.62213
37.143009 381.63617 259.93927
36.74868 382.38162 260.25644
36.354362 383.12711 260.57361
36.254669 383.91351 261.88403
35.859901 384.65982 262.20154
35.465492 385.40524 262.51871
35.070732 386.15155 262.83621
34.968788 386.94205 264.14841
34.573936 387.68832 264.46594
34.17918 388.4346 264.78345
34.075413 389.22839 266.09705
33.68013 389.97546 266.41495
33.28529 390.72171 266.73245
33.17979 391.51883 268.04749
33.073425 392.31757 269.36319
32.966614 393.11716 270.67926
32.569954 393.86667 270.99823
32.461411 394.66959 272.3157
32.352356 395.47327 273.63354
31.954826 396.22443 273.95319
31.844034 397.03143 275.27243
32.018684 397.89673 277.59235
31.905634 398.70782 278.91336
31.506804 399.46149 279.23407
31.392881 400.27426 280.55579
30.993103 401.02954 280.87723
30.877878 401.84479 282.20001
31.044554 402.72491 284.52625
30.926731 403.54514 285.85114
30.807966 404.36697 287.17673
30.688324 405.19046 288.50305
30.849348 406.08139 290.83386
31.008566 406.97559 293.16611
30.885366 407.80566 294.49524
31.041538 408.70566 296.82996
31.195454 409.60974 299.16644
31.347641 410.51715 301.5043
31.498077 411.42792 303.8436
31.646708 412.34189 306.1843
31.515621 413.18686 307.51978
31.661201 414.10666 309.86295
31.805061 415.02979 312.20752
31.6705 415.88138 313.54581
31.534985 416.73459 314.8848
31.673985 417.66678 317.23325
31.81167 418.6015 319.58276
31.946674 419.54111 321.93439
31.806835 420.40259 323.27692
31.938717 421.34796 325.63101
71.597336 325.23007 253.88165
71.191528 325.99918 254.20851
70.457123 326.79419 253.57005
70.052193 327.56165 253.89621
69.319092 328.35419 253.25671
68.915039 329.11996 253.58215
68.510529 329.8866 253.90797
68.106026 330.65323 254.23376
67.37545 331.4407 253.59218
66.971725 332.20563 253.9173
66.242462 332.99063 253.27464
65.839172 333.75473 253.59941
65.435883 334.5188 253.92419
64.709229 335.29883 253.27943
63.982906 336.07797 252.63434
63.580921 336.83957 252.95805
63.178505 337.60202 253.28212
62.77652 338.36362 253.60583
62.052803 339.13779 252.95863
61.651169 339.8985 253.28201
61.249538 340.65921 253.60539
60.848335 341.4191 253.92842
60.446697 342.17981 254.2518
59.726021 342.94818 253.60214
59.32526 343.70721 253.92482
58.606232 344.47223 253.27377
58.205463 345.23129 253.59647
57.805046 345.98944 253.91881
57.404633 346.74762 254.24115
56.688301 347.50769 253.58798
56.28875 348.26422 253.90962
55.573627 349.02173 253.25542
54.859375 349.77759 252.60049
54.46069 350.53247 252.92145
53.748085 351.28494 252.26515
53.349842 352.03897 252.58572
52.638626 352.78903 251.92836
52.241165 353.54135 252.24826
51.531685 354.28809 251.58949
51.134216 355.04041 251.90939
50.426388 355.78378 251.24924
50.029793 356.53442 251.56844
49.633198 357.2851 251.88763
49.236603 358.03574 252.20683
48.530945 358.77496 251.54491
48.13522 359.52396 251.8634
47.430859 360.26068 251.20044
47.03548 361.00882 251.5186
46.64019 361.75699 251.83675
45.938004 362.48956 251.17203
45.543495 363.23602 251.48949
44.842606 363.96613 250.8237
44.448528 364.71173 251.14081
44.054371 365.45734 251.45793
43.659863 366.2038 251.77539
43.265789 366.9494 252.0925
42.568283 367.67282 251.42393
42.174644 368.4176 251.74069
41.781353 369.16153 252.05711
41.387623 369.90628 252.37389
41.295944 370.67569 253.67741
40.901775 371.42126 253.99454
40.508053 372.16602 254.31131
40.11433 372.91077 254.62808
39.72052 373.65546 254.94489
39.326797 374.40021 255.26166
39.231472 375.17615 256.56802
38.837746 375.9209 256.8848
38.443501 376.66641 257.20193
38.049259 377.41196 257.51907
37.655445 378.15665 257.83588
37.261642 378.90134 258.15268
37.163708 379.68225 259.46115
36.769379 380.42773 259.77832
36.670151 381.21115 261.08783
36.275475 381.95749 261.40533
35.880707 382.7038 261.72284
35.48595 383.4501 262.04034
35.091187 384.19641 262.35788
34.696945 384.94196 262.67502
34.594505 385.73105 263.98703
34.199314 386.47818 264.3049
34.096092 387.26901 265.61761
33.700371 388.01691 265.93585
33.305176 388.76404 266.25369
33.200138 389.55817 267.56784
32.804432 390.30606 267.88605
32.697655 391.10345 269.2016
32.58992 391.9025 270.51785
32.481327 392.70319 271.83481
32.08474 393.45276 272.15375
31.97485 394.25592 273.47177
31.577396 395.00714 273.79141
31.466631 395.81195 275.11011
31.354473 396.61923 276.4299
31.241461 397.42816 277.7504
31.127575 398.23874 279.07159
31.012814 399.05099 280.39349
30.613554 399.80548 280.71454
30.497488 400.62021 282.03748
30.380909 401.43573 283.36081
30.545383 402.31561 285.68777
30.426285 403.13614 287.01318
30.306248 403.95831 288.33929
30.18524 404.78207 289.66614
30.343981 405.67267 291.99768
30.500992 406.56662 294.33063
30.655827 407.46472 296.66534
30.808842 408.36609 299.00146
30.96056 409.26996 301.33868
31.110023 410.17789 303.67761
31.257399 411.09003 306.01831
31.403385 412.00461 308.36008
31.270939 412.84985 309.69611
31.413456 413.77106 312.04068
31.554157 414.69556 314.38666
31.418322 415.54745 315.72546
31.281094 416.40179 317.06537
31.417379 417.33453 319.41489
31.277981 418.19305 320.75653
31.411221 419.13159 323.10852
31.269661 419.9942 324.4519
70.076607 325.55206 253.40335
69.343567 326.3468 252.76437
68.939148 327.11346 253.09015
68.534653 327.8801 253.41595
68.130234 328.64679 253.74174
67.725731 329.41339 254.06755
67.321663 330.1792 254.39301
66.59201 330.96725 253.75122
66.188385 331.73221 254.07632
65.460114 332.51785 253.43347
65.056824 333.28192 253.75824
64.330223 334.06418 253.114
63.604912 334.84393 252.4687
63.202492 335.60635 252.79277
62.478489 336.38364 252.14642
62.076504 337.14523 252.47014
61.674957 337.90601 252.7935
61.273399 338.66678 253.11687
60.55191 339.43903 252.46843
60.150719 340.19891 252.79146
59.749599 340.95883 253.11447
59.348404 341.71872 253.4375
58.947723 342.47784 253.76015
58.546524 343.2377 254.08318
57.82851 344.00333 253.43193
57.428093 344.76151 253.75427
56.711376 345.5246 253.10197
56.311913 346.28119 253.4236
55.91193 347.03854 253.74559
55.197388 347.79749 253.09154
54.797836 348.55402 253.41318
54.398716 349.30969 253.73447
53.686264 350.06445 253.07866
53.287148 350.82016 253.39996
52.576424 351.57162 252.74275
52.178177 352.32562 253.06334
51.468315 353.07544 252.40544
50.759762 353.82272 251.74648
50.36282 354.57425 252.06601
49.655476 355.31903 251.40602
49.258972 356.06973 251.72519
48.862381 356.8204 252.04439
48.466213 357.57022 252.36325
47.761566 358.31006 251.70113
47.057701 359.04819 251.03831
46.662403 359.79636 251.35646
46.267113 360.54453 251.67461
45.871735 361.29263 251.99277
45.170555 362.02585 251.32784
44.775612 362.77313 251.64565
44.076088 363.50293 250.97932
43.68166 364.24945 251.29677
43.287582 364.99509 251.61388
42.893517 365.74072 251.93098
42.499439 366.48636 252.24809
42.105362 367.23199 252.56522
41.408875 367.95599 251.89642
41.015575 368.69992 252.21286
40.320827 369.42059 251.54266
40.228645 370.18863 252.84604
40.135254 370.9592 254.15044
39.741524 371.70392 254.46721
39.347794 372.44867 254.78398
38.954075 373.19342 255.10075
38.560352 373.93817 255.41753
38.464615 374.71277 256.72372
38.070457 375.45834 257.04083
37.973423 376.23544 258.34808
37.578743 376.98181 258.66559
37.184155 377.72821 258.98306
36.789906 378.47372 259.3002
36.690701 379.25497 260.60919
36.296021 380.00134 260.9267
35.901344 380.74768 261.2442
35.800323 381.5322 262.55463
35.405212 382.27936 262.87247
35.010014 383.02649 263.19031
34.614902 383.77368 263.50818
34.219711 384.52081 263.82602
33.824944 385.26712 264.14355
33.720886 386.05743 265.45642
33.325691 386.80457 265.77429
32.930061 387.55255 266.0925
32.824612 388.34528 267.40643
32.428894 389.0932 267.72467
32.321709 389.88928 269.04004
31.925644 390.63806 269.35861
31.817078 391.43658 270.67502
31.707554 392.23669 271.99219
31.597254 393.03851 273.31
31.200233 393.78891 273.6293
31.088631 394.59323 274.94818
30.976074 395.39914 276.26779
30.862637 396.20673 277.5881
30.748339 397.01599 278.90912
30.633099 397.82681 280.23083
30.23391 398.58136 280.55188
30.117363 399.39471 281.87466
30.000463 400.20892 283.19778
29.882175 401.02557 284.52197
29.763031 401.8439 285.84686
29.923908 402.72598 288.1756
29.802498 403.5484 289.50226
29.95999 404.43716 291.8338
30.116093 405.32837 294.16641
30.270386 406.22287 296.50043
30.422501 407.12149 298.83621
30.29459 407.95636 300.16815
30.721523 408.92871 303.51199
30.868355 409.83722 305.85202
31.013445 410.74908 308.19345
30.880154 411.59378 309.52963
31.022202 412.51144 311.8735
30.88674 413.36032 313.21146
31.025249 414.28455 315.55814
31.162006 415.2121 317.90625
31.023077 416.0676 319.24701
30.60976 416.84854 319.57935
30.742521 417.78351 321.93063
30.600899 418.64395 323.2735
30.458416 419.50604 324.61707
68.559036 325.87268 252.92363
67.828232 326.6655 252.2834
67.42424 327.43134 252.60884
67.020264 328.19717 252.93428
66.616272 328.96304 253.25972
66.212212 329.72882 253.58516
65.808655 330.49384 253.91025
65.080811 331.28082 253.26758
64.677597 332.04495 253.59233
63.951569 332.82864 252.94824
63.548717 333.59189 253.27266
62.823906 334.37305 252.62752
62.422005 335.1347 252.95122
61.698494 335.91336 252.30504
61.29702 336.67419 252.62839
60.89547 337.43497 252.95175
60.493923 338.19571 253.27512
59.77301 338.96942 252.62682
59.371895 339.72934 252.94983
58.97113 340.4884 253.27251
58.570019 341.24832 253.59552
58.1689 342.00827 253.91853
57.451378 342.77527 253.26744
57.051044 343.53351 253.58977
56.650711 344.29172 253.91211
56.250381 345.04996 254.23442
55.535027 345.81281 253.58159
55.135132 346.57019 253.90356
54.421513 347.32971 253.24931
54.022476 348.08548 253.57059
53.622932 348.84198 253.89223
53.223904 349.59772 254.2135
52.512802 350.35223 253.55716
52.11412 351.10709 253.8781
51.404327 351.8591 253.22072
50.695911 352.60867 252.56226
49.988281 353.35654 251.90311
49.590908 354.10892 252.22299
48.885014 354.85345 251.56244
48.488419 355.6041 251.88164
47.78339 356.34698 251.22038
47.387745 357.09604 251.53886
46.991589 357.84589 251.85771
46.288731 358.58463 251.1947
45.893517 359.33282 251.51283
45.498146 360.08093 251.83099
45.102928 360.82916 252.14912
44.707645 361.57733 252.46727
44.00774 362.31024 251.80182
43.613316 363.05673 252.11926
42.91515 363.78629 251.45239
42.520721 364.53281 251.76984
42.126644 365.27844 252.08694
41.732651 366.02411 252.40405
41.338577 366.76974 252.72116
40.643456 367.4935 252.05183
40.249809 368.23828 252.36859
39.856171 368.98309 252.68535
39.462963 369.72705 253.00175
39.36908 370.49622 254.30598
39.2738 371.26782 255.6113
38.879723 372.01343 255.92841
38.485565 372.75903 256.24554
38.091488 373.50464 256.56265
37.697327 374.25024 256.87976
37.303169 374.99579 257.1969
37.205212 375.77234 258.50433
36.810616 376.51874 258.82181
36.416458 377.26431 259.13892
36.021866 378.01071 259.45639
35.92173 378.79138 260.76559
35.820732 379.57373 262.07547
35.425621 380.32092 262.39331
35.03051 381.06812 262.71118
34.635399 381.81528 263.02902
34.240372 382.56253 263.34683
34.136688 383.34979 264.65884
33.741138 384.09781 264.97705
33.345509 384.84576 265.29526
32.950394 385.59296 265.61313
32.555283 386.34015 265.93097
32.15966 387.0881 266.24918
32.05336 387.88034 267.56329
31.657736 388.6283 267.8815
31.549627 389.42383 269.19705
31.440567 390.22092 270.51331
31.044151 390.97058 270.83221
30.933788 391.7702 272.14954
30.822556 392.57147 273.46756
30.710537 393.37442 274.78625
30.598003 394.17819 276.10532
30.484091 394.98438 277.42548
30.369383 395.79227 278.74631
30.253723 396.60178 280.06784
30.137287 397.41299 281.39008
30.019899 398.22583 282.71304
29.619766 398.98199 283.03479
29.500637 399.79813 284.35916
29.381508 400.61426 285.6835
29.541489 401.49362 288.0119
29.419239 402.31552 289.33875
29.576185 403.20068 291.66962
29.452198 404.02588 292.99783
29.606102 404.91687 295.33118
29.757757 405.81192 297.66626
29.907665 406.7103 300.00275
30.055851 407.612 302.34064
30.202211 408.51697 304.67996
30.346828 409.42523 307.02069
30.489723 410.33685 309.36282
30.630436 411.25259 311.7067
30.494574 412.1001 313.04446
30.358185 412.94843 314.38257
30.49448 413.87244 316.73001
30.355579 414.72574 318.07022
30.215719 415.58066 319.41113
30.074989 416.43726 320.75281
29.933401 417.29553 322.09512
29.790936 418.15546 323.43817
29.647612 419.017 324.78192
66.315178 326.98447 251.80171
65.911629 327.74948 252.1268
65.508598 328.51373 252.45151
65.104965 329.27869 252.77661
64.701927 330.04294 253.10133
63.975433 330.82965 252.45813
63.57275 331.59299 252.78252
63.169987 332.35629 253.1069
62.767227 333.1196 253.4313
62.043407 333.90137 252.78598
61.641075 334.66385 253.11003
60.918922 335.44226 252.4633
60.517456 336.20309 252.78665
60.115913 336.96384 253.11002
59.714012 337.72549 253.4337
58.994461 338.4989 252.78488
58.593342 339.25885 253.10789
58.19223 340.01877 253.43089
57.474842 340.78806 252.78032
57.390434 341.53784 254.07657
56.989746 342.29694 254.39923
56.273151 343.06451 253.74797
55.872902 343.82278 254.07027
55.472572 344.58102 254.39259
54.758575 345.3436 253.73921
54.358765 346.10104 254.06117
53.645985 346.86108 253.40677
53.246601 347.61771 253.72836
52.847496 348.37338 254.04965
52.44846 349.12912 254.37093
51.738373 349.88425 253.71439
51.339775 350.63916 254.03531
50.630898 351.39172 253.37773
49.922985 352.1427 252.71944
49.5256 352.89508 253.03932
48.819336 353.64267 252.37964
48.422474 354.39426 252.69916
47.717503 355.13937 252.03842
47.320999 355.89008 252.3576
46.61776 356.63187 251.69547
46.221687 357.38174 252.01428
45.520107 358.12018 251.35075
45.124985 358.86844 251.66887
44.729256 359.61743 251.98737
44.333961 360.3656 252.30551
43.938759 361.11383 252.62363
43.543896 361.86118 252.94144
42.845436 362.59381 252.27542
42.451012 363.34033 252.59286
41.754204 364.06964 251.92548
41.359783 364.81616 252.24292
40.96579 365.56183 252.56
40.571796 366.3075 252.87709
39.877594 367.0318 252.2076
39.483948 367.77661 252.52435
39.090832 368.52063 252.84074
38.996014 369.28925 254.14516
38.602367 370.03406 254.46193
38.506691 370.80429 255.76704
38.112179 371.55075 256.0845
37.718109 372.29639 256.40161
37.324036 373.04199 256.71872
36.929958 373.78763 257.03583
36.535801 374.5332 257.35297
36.436993 375.30923 258.66055
36.337318 376.08691 259.96887
35.942291 376.83414 260.28668
35.547791 377.5806 260.60416
35.445862 378.36237 261.91422
35.34359 379.14502 263.22464
34.948044 379.89304 263.54285
34.552582 380.64111 263.86102
34.15704 381.3891 264.1792
33.761574 382.13718 264.49738
33.656612 382.92477 265.80994
33.260632 383.67361 266.12848
32.864651 384.42245 266.44702
32.469105 385.17047 266.76523
32.073128 385.91931 267.08377
31.677586 386.66733 267.40195
31.282032 387.41534 267.72015
31.173519 388.2095 269.03552
31.064049 389.00528 270.35159
30.953709 389.8027 271.6684
30.556866 390.55319 271.98764
30.445229 391.35312 273.30548
30.332718 392.15472 274.62402
30.219337 392.95795 275.94327
30.105011 393.76279 277.26321
29.98982 394.56931 278.58389
29.873756 395.37747 279.90524
29.756826 396.18729 281.22733
29.639023 396.99878 282.55011
29.520357 397.81192 283.87357
29.40074 398.62665 285.19775
29.28034 399.44315 286.52264
29.158981 400.26123 287.84827
29.036762 401.08093 289.17456
29.192366 401.96417 291.50543
29.06789 402.78802 292.8335
29.220898 403.67624 295.16644
29.371647 404.56857 297.50119
29.520668 405.4642 299.83734
29.667944 406.36316 302.1749
29.537308 407.19858 303.5079
29.681471 408.10327 305.84793
30.09911 409.07983 309.19604
30.238934 409.99286 311.53958
30.377375 410.90826 313.88419
30.239708 411.7569 315.22284
30.101265 412.60724 316.56216
29.961861 413.45917 317.90222
29.821167 414.3136 319.24335
29.680031 415.16882 320.58478
29.8097 416.10083 322.93646
29.666395 416.96024 324.27966
29.522144 417.82123 325.6236
65.128952 327.27649 252.28569
64.725487 328.04156 252.61076
64.322365 328.80576 252.9355
63.918816 329.57077 253.26057
63.193768 330.35724 252.61681
62.791084 331.12061 252.94119
62.388397 331.88397 253.26558
61.665081 332.66714 252.62041
60.942551 333.44858 251.97455
60.541176 334.20944 252.29788
59.820381 334.98758 251.65062
59.418907 335.74841 251.97397
59.017879 336.50839 252.29697
58.616848 337.26837 252.61996
58.21582 338.02838 252.94295
57.498062 338.80069 252.29323
57.097458 339.55984 252.61588
56.696785 340.31897 252.93854
56.296532 341.07724 253.26085
56.210846 341.82733 254.55763
55.810165 342.58643 254.88029
55.095444 343.35297 254.22812
54.69519 344.11124 254.55043
53.981693 344.87521 253.8972
53.582314 345.63184 254.21881
52.87011 346.39331 253.56454
52.471085 347.14905 253.88582
52.072136 347.90485 254.20708
51.672668 348.66141 254.5287
50.963509 349.41708 253.87196
50.255131 350.17105 253.21455
49.856964 350.92514 253.53513
49.150406 351.67584 252.8763
48.752674 352.42911 253.19652
48.047421 353.17731 252.53662
47.650471 353.92883 252.85616
46.946869 354.67371 252.19487
46.550442 355.42444 252.51404
46.153923 356.17517 252.83322
45.452057 356.91669 252.17055
45.056496 357.66577 252.489
44.35593 358.40482 251.82527
43.960716 359.15305 252.1434
43.565506 359.90128 252.46153
43.170223 360.64944 252.77966
42.775009 361.39764 253.09781
42.379719 362.14581 253.41594
41.683056 362.87738 252.74905
41.288715 363.62393 253.06647
40.593258 364.35297 252.39854
40.199356 365.09872 252.71562
39.805367 365.84439 253.03271
39.411377 366.59006 253.34979
39.017387 367.33575 253.66689
38.62331 368.08136 253.98399
38.229752 368.82623 254.30074
37.835754 369.5719 254.61783
37.739155 370.34161 255.92314
37.345161 371.08728 256.24023
36.950649 371.83374 256.55771
36.556572 372.57938 256.87482
36.457798 373.35321 258.18188
36.063293 374.09967 258.49933
35.668781 374.84613 258.8168
35.568184 375.62323 260.12527
35.173241 376.37051 260.44308
35.071342 377.15012 261.75262
34.676399 377.8974 262.07043
34.572762 378.68033 263.38141
34.468605 379.46402 264.69272
34.072712 380.21292 265.01126
33.676819 380.96182 265.32977
33.280926 381.71069 265.64832
33.174171 382.49939 266.96173
32.778275 383.24829 267.28027
32.381947 383.99799 267.59915
31.697697 384.70541 266.92209
31.301716 385.45425 267.24063
30.906261 386.20233 267.55881
30.797245 386.99509 268.87402
30.687368 387.78952 270.18991
30.290955 388.53918 270.50882
30.179775 389.33612 271.82578
30.067728 390.13467 273.14343
29.954723 390.93488 274.46182
29.840946 391.73679 275.78088
29.726206 392.54028 277.10065
29.610607 393.34546 278.42114
29.494131 394.15228 279.74231
29.376789 394.96075 281.06421
29.258503 395.77084 282.38681
29.13899 396.5835 283.71048
29.29986 397.45245 286.03604
29.178099 398.26917 287.36148
29.055822 399.08667 288.68726
28.932756 399.90588 290.01373
29.087465 400.78638 292.34424
28.961714 401.61053 293.67285
29.113384 402.49686 296.00583
28.985378 403.3251 297.33618
29.133575 404.21808 299.67197
29.280304 405.1134 302.00885
29.424435 406.01373 304.34784
29.29217 406.85034 305.6817
29.433266 407.75647 308.02313
29.572966 408.66504 310.36563
29.710583 409.57782 312.7099
29.846821 410.49298 315.05521
29.980789 411.41232 317.40228
29.840626 412.26379 318.74252
29.426964 413.04559 319.07516
29.285339 413.89948 320.41644
29.142929 414.75504 321.75842
29.270391 415.6868 324.11081
29.125738 416.54645 325.45456
209.01895 502.80478 1073.1307
63.942802 327.56857 252.76965
63.217812 328.35727 252.1264
62.814781 329.12152 252.45113
62.412094 329.88486 252.7755
61.688835 330.67026 252.13084
61.286591 331.43277 252.45488
60.564636 332.21567 251.80917
60.162823 332.97736 252.13284
59.442596 333.75696 251.48573
59.041222 334.51782 251.80907
58.64019 335.2778 252.13206
58.239155 336.03781 252.45506
57.838211 336.79785 252.77803
57.437176 337.55783 253.10103
57.036148 338.31781 253.42403
56.319756 339.08987 252.77376
55.919151 339.84903 253.09642
55.51899 340.60736 253.4187
55.432381 341.35687 254.71567
55.031776 342.11606 255.03831
54.317898 342.88309 254.38597
53.917656 343.64136 254.70827
53.205158 344.40594 254.05486
52.805344 345.16339 254.37682
52.094501 345.92462 253.72202
51.69556 346.68042 254.04326
51.296177 347.43701 254.36487
50.587505 348.19409 253.70831
50.188992 348.94907 254.02921
49.481621 349.70364 253.3716
49.083466 350.45773 253.69215
48.377396 351.20984 253.03349
47.980103 351.96225 253.35336
47.275764 352.71103 252.69328
46.878906 353.46259 253.0128
46.175793 354.20883 252.35168
45.779358 354.95959 252.67085
45.382935 355.71036 252.99002
44.682076 356.45251 252.32713
44.286434 357.20157 252.64561
43.890873 357.95065 252.96408
43.494801 358.70053 253.28291
43.099155 359.44958 253.60138
42.703514 360.19864 253.91986
42.006039 360.93408 253.25418
41.611263 361.68149 253.57196
40.915092 362.41443 252.90523
40.520748 363.16101 253.22266
39.826313 363.89066 252.55452
39.432404 364.63638 252.8716
39.03841 365.38205 253.18869
38.644508 366.12781 253.50577
38.250519 366.87347 253.82286
37.856964 367.61832 254.13959
37.462971 368.36398 254.45668
37.069412 369.10883 254.77342
36.971619 369.87891 256.07922
36.577541 370.62454 256.39636
36.183548 371.37021 256.71344
35.789558 372.11591 257.03052
35.689415 372.89001 258.33813
35.294907 373.63644 258.65561
35.193989 374.41229 259.9639
34.799046 375.15958 260.28171
34.696732 375.93784 261.59106
34.301361 376.68594 261.90924
34.197674 377.46664 263.21967
33.802292 378.21475 263.53784
33.696861 378.99878 264.84967
33.301052 379.74771 265.16818
32.905159 380.49661 265.48669
32.509346 381.24554 265.80521
32.4021 382.03284 267.11847
32.005768 382.78256 267.43738
31.609436 383.53229 267.75626
31.213112 384.28201 268.07513
30.817219 385.03091 268.39365
30.420887 385.78064 268.71255
30.311037 386.57288 270.02789
30.199448 387.36847 271.34467
29.802601 388.11896 271.66394
29.690144 388.9162 272.98141
29.576733 389.71506 274.29959
29.462456 390.51556 275.6185
29.347313 391.31772 276.93811
29.2313 392.12155 278.25842
29.114422 392.92703 279.57941
28.996593 393.73413 280.90112
28.87746 394.5437 282.22391
28.75798 395.35416 283.54703
28.917429 396.22113 285.87262
28.795692 397.03571 287.19751
28.952106 397.90851 289.52557
28.827682 398.728 290.8526
28.702824 399.54831 292.17996
28.854895 400.42941 294.51154
28.727432 401.2547 295.841
28.875954 402.1424 298.17542
29.023167 403.03256 300.51086
28.892151 403.86444 301.84314
29.035892 404.76123 304.18143
29.177818 405.66132 306.52112
29.317572 406.56555 308.86255
29.181698 407.40649 310.19873
29.318771 408.31564 312.5423
29.453659 409.22894 314.88763
29.314312 410.07657 316.22662
29.446175 410.99567 318.5744
29.032595 411.77753 318.90704
28.890556 412.63007 320.24817
28.476887 413.41187 320.58081
28.333637 414.26694 321.92297
28.189432 415.1236 323.26584
207.77835 500.3064 1070.7889
62.436058 327.88483 252.28511
62.03294 328.64902 252.60985
61.310261 329.43585 251.96533
60.908096 330.19843 252.28935
60.18663 330.98273 251.6438
59.784817 331.74442 251.96748
59.064655 332.52621 251.32089
58.663712 333.28625 251.64386
58.262329 334.04712 251.96719
57.861382 334.80716 252.29018
57.460438 335.5672 252.61314
57.059055 336.32809 252.93648
56.65802 337.08807 253.25948
56.257076 337.84811 253.58246
55.85648 338.60727 253.90509
55.141445 339.37906 253.2543
54.740925 340.13828 253.57693
54.653904 340.88644 254.87372
54.252792 341.64639 255.19672
53.539925 342.41403 254.54417
53.139755 343.17236 254.86647
52.428631 343.93668 254.21251
51.717842 344.70013 253.55821
51.318981 345.45596 253.87946
50.919605 346.21259 254.20107
50.520653 346.96838 254.52232
49.812904 347.72601 253.86557
49.413963 348.48181 254.18683
48.70752 349.23694 253.52902
48.309872 349.99026 253.84921
47.604729 350.74292 253.19037
47.207523 351.49539 253.51021
46.50412 352.24472 252.84995
46.106815 352.99716 253.16982
45.405231 353.74323 252.50813
45.008728 354.49393 252.82732
44.612381 355.24475 253.14645
43.912437 355.98746 252.4834
43.516804 356.73651 252.80186
43.120811 357.48642 253.12068
42.725254 358.23553 253.43915
42.027836 358.97321 252.77399
41.632713 359.72147 253.09209
41.237591 360.46973 253.4102
40.842377 361.21796 253.72833
40.14756 361.95065 253.06107
39.753223 362.6972 253.37849
39.358452 363.44461 253.69626
38.665459 364.17404 253.02757
38.271984 364.91895 253.3443
37.877995 365.66461 253.66139
37.484085 366.41034 253.97845
37.090183 367.15607 254.29553
36.696625 367.90094 254.61227
36.598328 368.66962 255.91792
36.204338 369.41528 256.23502
36.104748 370.18643 257.54172
35.71032 370.93295 257.85916
35.315895 371.67944 258.17661
34.921474 372.42596 258.49405
34.819622 373.20123 259.80252
34.424683 373.94849 260.12033
34.030258 374.69501 260.43777
33.635315 375.44232 260.75562
33.531731 376.22089 262.06549
33.136356 376.96899 262.38364
33.031384 377.75 263.69461
32.636009 378.49811 264.01276
32.529301 379.28247 265.32513
32.133492 380.0314 265.64365
31.737598 380.7803 265.96216
31.629597 381.56711 267.27557
31.233261 382.31683 267.59445
30.837019 383.06662 267.91333
30.441116 383.81552 268.23187
30.330433 384.60727 269.54739
29.934097 385.35699 269.86627
29.822544 386.15039 271.18253
29.425686 386.90091 271.50177
29.312393 387.69763 272.81943
29.198574 388.49512 274.13745
28.800861 389.24728 274.4574
28.685741 390.04727 275.77646
28.569756 390.84894 277.09622
28.45282 391.65219 278.41672
28.615877 392.50827 280.73843
28.496775 393.31567 282.06067
28.376717 394.12469 283.38364
28.255873 394.93542 284.70728
28.413113 395.80215 287.0336
28.289669 396.61786 288.35938
28.443886 397.49042 290.68814
28.318617 398.30939 292.01532
28.192055 399.13086 293.34354
28.341839 400.01166 295.67584
28.489454 400.89661 298.00992
28.635334 401.78488 300.34537
28.779392 402.67639 302.68225
28.646671 403.50943 304.01544
28.787697 404.40677 306.35477
28.652798 405.24396 307.6897
28.790705 406.14703 310.03149
28.926519 407.05432 312.37506
28.787987 407.89804 313.71283
28.920679 408.8111 316.05887
29.051634 409.72748 318.40631
28.909637 410.57782 319.74689
28.495613 411.36053 320.0799
28.0821 412.14246 320.41254
27.668427 412.92432 320.74518
27.254845 413.70615 321.07782
206.56418 499.51236 1072.1071
60.931519 328.20135 251.79985
60.529343 328.96393 252.12387
59.808464 329.74966 251.47847
59.406734 330.51141 251.80214
58.687061 331.29459 251.1557
58.285767 332.05551 251.47902
57.884819 332.81555 251.80199
57.167404 333.59467 251.15378
56.766457 334.35471 251.47676
56.365944 335.11392 251.79939
55.965431 335.87311 252.12201
55.564919 336.63232 252.44464
55.16441 337.39154 252.76727
54.763889 338.15076 253.08989
54.363728 338.90909 253.41219
53.963219 339.66827 253.73482
53.875259 340.41592 255.03178
53.162457 341.18579 254.37975
52.762291 341.94409 254.70204
52.05122 342.71066 254.0486
51.651482 343.46817 254.37054
50.94215 344.23138 253.7157
50.543285 344.98721 254.03694
50.143993 345.7439 254.35852
49.745049 346.49966 254.67978
49.037876 347.25876 254.02318
48.639362 348.01373 254.34409
47.933926 348.7695 253.68608
47.535854 349.52362 254.00662
46.832069 350.276 253.34723
46.434429 351.0293 253.66743
46.037216 351.78177 253.98727
45.335167 352.53085 253.32648
44.634079 353.27832 252.66496
44.237648 354.02908 252.98413
43.841736 354.77905 253.30292
43.142731 355.52234 252.63966
42.444588 356.26395 251.97569
42.049461 357.01221 252.29381
41.955193 357.7713 253.59575
41.258781 358.50958 252.93039
40.863655 359.25784 253.2485
40.468529 360.00613 253.5666
40.073837 360.75357 253.88437
39.379955 361.48682 253.2169
38.985268 362.23425 253.53467
38.590923 362.98083 253.8521
38.196228 363.72827 254.16986
37.801895 364.47482 254.48727
37.407551 365.22141 254.8047
36.71714 365.948 254.13445
36.323742 366.69296 254.45114
35.92984 367.43869 254.76822
35.830624 368.20679 256.07407
35.436714 368.95251 256.39114
35.336624 369.72229 257.69769
34.941769 370.46964 258.01547
34.547352 371.21616 258.33292
34.153004 371.96271 258.65033
34.050667 372.73657 259.95865
33.655891 373.48395 260.27643
33.260948 374.23126 260.59424
33.156876 375.00842 261.90396
32.761578 375.75659 262.22211
32.656204 376.53625 263.5329
32.260479 377.28528 263.85138
32.153713 378.06738 265.16324
31.757904 378.81631 265.48175
31.64941 379.60175 266.79498
31.253246 380.35156 267.11383
31.143879 381.13867 268.4278
30.7472 381.88928 268.74701
30.350523 382.63986 269.06622
29.95376 383.39044 269.38544
29.842138 384.18161 270.70117
29.445461 384.93222 271.02039
29.332104 385.72672 272.33752
28.934914 386.47809 272.6571
28.820686 387.27426 273.97495
28.705589 388.07208 275.29349
28.589115 388.87234 276.6131
28.190613 389.62622 276.93372
28.073271 390.42813 278.25403
27.955057 391.23172 279.57504
28.115826 392.08746 281.89749
27.995449 392.8952 283.22025
27.874115 393.70453 284.54373
27.751564 394.51642 285.86826
27.906603 395.3829 288.19528
27.782234 396.19806 289.52124
27.933723 397.07114 291.85107
27.807184 397.89044 293.17877
27.955635 398.76932 295.51108
28.102783 399.6507 297.84445
28.247774 400.53625 300.17957
28.115932 401.36545 301.51151
28.257801 402.25671 303.84909
28.397919 403.15134 306.18808
28.535873 404.05011 308.52884
28.399185 404.88837 309.86465
28.534447 405.79205 312.20755
28.667545 406.69989 314.55219
28.527391 407.5448 315.89081
28.657364 408.45837 318.23792
28.243855 409.2403 318.57056
28.371239 410.15887 320.91974
27.956852 410.94244 321.25311
27.542927 411.72522 321.58606
27.128893 412.50793 321.91907
59.748444 328.492 252.28241
59.028473 329.27829 251.63683
58.309383 330.06293 250.99054
57.591072 330.84586 250.34357
57.190212 331.60596 250.66652
56.78978 332.3652 250.98914
56.38892 333.12531 251.31209
55.988491 333.88455 251.6347
55.588066 334.64383 251.95731
55.187546 335.40305 252.27994
54.787033 336.16226 252.60257
54.386608 336.92151 252.92517
53.986088 337.68073 253.2478
53.586014 338.43909 253.57008
53.185421 339.19824 253.89272
53.096188 339.9462 255.19022
52.384823 340.71585 254.53763
51.984669 341.47418 254.85991
51.274597 342.24133 254.20627
50.87487 342.99884 254.52821
50.166454 343.76263 253.87317
49.767162 344.51929 254.19476
49.368301 345.27515 254.51601
48.661625 346.03561 253.85956
48.263199 346.79062 254.18045
47.55825 347.54779 253.52261
47.160263 348.30197 253.84314
46.456612 349.05664 253.18425
46.058979 349.80994 253.50446
45.357071 350.56128 252.84415
44.960297 351.31293 253.16365
44.563515 352.06458 253.48315
43.863262 352.81256 252.82146
43.466919 353.56335 253.14061
43.070583 354.31418 253.45975
42.372498 355.05798 252.79631
41.6758 355.79938 252.13179
41.280323 356.54855 252.45023
41.185555 357.30621 253.75201
40.490074 358.04507 253.08646
40.095032 358.7934 253.40456
39.699913 359.54169 253.72266
39.304783 360.28995 254.04077
38.611908 361.0238 253.37311
38.217651 361.77045 253.69052
37.82296 362.51788 254.00829
37.428711 363.2645 254.32568
37.034367 364.01105 254.64311
36.64011 364.75766 254.96053
36.245766 365.50421 255.27795
35.556797 366.23062 254.60713
35.163322 366.97552 254.92384
35.063343 367.74316 256.22986
34.669353 368.48886 256.54694
34.567997 369.25894 257.854
34.173656 370.00549 258.17142
33.779312 370.75208 258.48886
33.384972 371.49863 258.80627
33.281357 372.2728 260.11511
32.886505 373.02014 260.43289
32.782021 373.79599 261.74243
32.386726 374.54413 262.06058
32.280937 375.32248 263.37119
31.885214 376.07147 263.68967
31.778046 376.85223 265.00134
31.38188 377.60205 265.32019
31.273411 378.38531 266.6329
31.163551 379.17102 267.94669
30.766956 379.92166 268.2659
30.656233 380.70901 269.58038
30.259203 381.46051 269.89993
29.862087 382.21194 270.21951
29.749193 383.00345 271.53574
29.352085 383.75488 271.85532
29.237885 384.54889 273.17261
28.840256 385.30109 273.49255
28.725185 386.09674 274.81055
28.326771 386.85065 275.13116
28.21032 387.64874 276.45026
28.093002 388.44849 277.77002
27.9743 389.25067 279.09088
27.855246 390.05374 280.41205
27.735321 390.85846 281.73395
27.614017 391.66562 283.05688
27.770849 392.52444 285.38144
27.647804 393.33496 286.70581
27.523453 394.14792 288.03122
27.675779 395.01495 290.35931
27.826456 395.88535 292.68881
27.698555 396.7049 294.01703
27.84568 397.58191 296.34937
27.991491 398.46136 298.68274
27.860117 399.28757 300.01376
28.002378 400.17365 302.34998
28.14299 401.06308 304.68756
28.00806 401.89587 306.02142
28.145031 402.79181 308.36185
28.280781 403.69034 310.70331
28.414284 404.59293 313.04654
28.274578 405.43484 314.38428
28.404959 406.3432 316.73001
28.262575 407.19003 318.06989
28.389994 408.10428 320.41803
27.97562 408.88785 320.75134
27.561691 409.67059 321.08435
27.41618 410.52319 322.4267
27.001801 411.30679 322.76001
58.248489 328.80695 251.79517
57.530323 329.59213 251.1487
56.813026 330.37567 250.50151
56.412155 331.13577 250.82448
56.01173 331.89502 251.14709
55.611382 332.65436 251.46968
55.210522 333.41443 251.79265
54.810097 334.17371 252.11525
54.409576 334.93289 252.43788
54.009155 335.69217 252.76048
53.608727 336.45142 253.0831
53.208218 337.21063 253.40573
52.808216 337.96906 253.72798
52.407703 338.72827 254.05061
52.007195 339.48749 254.37323
51.607113 340.24585 254.69551
50.897457 341.01437 254.04205
50.497814 341.77191 254.36397
49.789978 342.53717 253.70909
49.390678 343.29382 254.03067
48.99147 344.05057 254.35225
48.285286 344.81241 253.69597
47.88694 345.56747 254.01685
47.182491 346.32602 253.35916
46.784496 347.08023 253.6797
46.386501 347.83438 254.00024
45.683788 348.58963 253.34116
44.981945 349.3432 252.68137
44.585247 350.09488 253.00084
44.188473 350.84653 253.32034
43.488796 351.59595 252.6588
43.092541 352.3468 252.97794
42.696198 353.09763 253.29707
42.299854 353.84845 253.61623
41.602783 354.5929 252.95258
40.90649 355.33563 252.28824
40.511448 356.08395 252.60634
40.116409 356.83228 252.92442
39.721371 357.5806 253.24252
39.326332 358.32892 253.56062
38.931202 359.07718 253.87874
38.536167 359.8255 254.19682
37.844219 360.55994 253.52898
37.449608 361.30743 253.84673
37.055347 362.05405 254.16412
36.661098 362.80066 254.48154
36.266403 363.5481 254.7993
35.872581 364.29388 255.11635
35.478329 365.0405 255.43376
35.084068 365.78711 255.75117
34.689812 366.53369 256.06857
34.29591 367.27945 256.38565
34.194138 368.04819 257.69254
33.799797 368.79474 258.00995
33.405022 369.54211 258.32773
33.010765 370.28876 258.64514
32.907089 371.0607 259.95346
32.512314 371.80811 260.27124
32.406998 372.58344 261.58096
32.011784 373.33163 261.89908
31.905506 374.10858 263.2095
31.509781 374.85757 263.52802
31.402199 375.63699 264.83951
31.006126 376.38687 265.15833
30.897163 377.16873 266.47089
30.786983 377.95312 267.78445
30.390387 378.7038 268.10367
30.278816 379.49066 269.41833
30.166809 380.27832 270.73334
29.769264 381.03058 271.05325
29.655529 381.82156 272.36969
29.257629 382.57471 272.68994
29.142942 383.36731 274.00708
28.74453 384.12122 274.3277
28.628624 384.91638 275.64587
28.229773 385.67114 275.96683
28.112484 386.46869 277.28607
27.713205 387.22427 277.60739
27.594521 388.02429 278.9277
27.194805 388.7807 279.24939
27.354208 389.63019 281.57077
27.232929 390.43518 282.89322
27.388777 391.29123 285.21744
27.264889 392.10117 286.54196
27.417707 392.96304 288.86865
27.291565 393.7771 290.19495
27.441336 394.64478 292.52408
27.589294 395.51572 294.85464
27.735077 396.39081 297.18695
27.60416 397.21399 298.51715
27.74691 398.09488 300.85193
27.88784 398.97906 303.18811
28.027035 399.86652 305.5257
27.89126 400.69879 306.85977
28.026896 401.59286 309.2002
27.88895 402.42926 310.53601
28.021557 403.32916 312.87891
28.152416 404.23236 315.22318
28.010925 405.07532 316.56183
27.868124 405.92084 317.90149
27.724899 406.76715 319.24152
27.850037 407.68106 321.59042
27.435234 408.46548 321.9241
27.020515 409.24994 322.25775
26.605705 410.03436 322.59143
26.458912 410.88727 323.93433
56.435581 329.14523 250.33656
56.034805 329.9054 250.65952
55.634457 330.6647 250.9821
55.233681 331.42484 251.30505
54.833256 332.18411 251.62766
54.43248 332.94424 251.95059
54.032043 333.70352 252.27321
53.631618 334.46277 252.59583
53.231186 335.22205 252.91843
52.519588 335.99701 252.2672
52.430332 336.74057 253.56364
52.029903 337.49982 253.88626
51.31995 338.27142 253.23364
50.920311 339.02896 253.55557
50.520317 339.78741 253.87782
50.12067 340.54495 254.19975
49.412895 341.31241 253.54538
49.014111 342.06833 253.86661
48.614906 342.82501 254.18817
47.90929 343.58835 253.53204
47.510517 344.34424 253.85327
46.806561 345.10419 253.19576
46.408211 345.85925 253.51663
46.010223 346.61343 253.83716
45.612312 347.36765 254.15768
44.910954 348.12262 253.49806
44.210033 348.87674 252.83807
43.813343 349.62845 253.15756
43.114159 350.37927 252.49619
42.717899 351.13013 252.81532
42.321644 351.88098 253.13445
41.624195 352.62848 252.47166
41.228371 353.37851 252.79044
40.832901 354.12766 253.10889
40.137615 354.87103 252.44435
39.742661 355.61938 252.76242
39.347191 356.36853 253.08087
38.952145 357.11688 253.39896
38.55711 357.86517 253.71706
38.162148 358.61356 254.03514
37.470692 359.3494 253.36745
37.076088 360.09689 253.6852
36.386009 360.83029 253.01643
36.2873 361.59103 254.32033
35.893051 362.33765 254.63774
35.498875 363.08432 254.95512
35.104626 363.83093 255.27254
34.710361 364.57755 255.58995
34.316193 365.32422 255.90733
34.214798 366.0899 257.21335
33.82011 366.83734 257.53113
33.716984 367.60632 258.83853
33.322205 368.35373 259.15631
32.927513 369.10117 259.47406
32.532391 369.84946 259.79218
32.137615 370.59683 260.10995
32.03223 371.36993 261.41916
31.637108 372.11819 261.73727
31.529991 372.89462 263.04785
31.134348 373.64368 263.36633
31.026279 374.42172 264.67767
30.630199 375.1716 264.99649
30.520832 375.95209 266.30887
30.410233 376.73517 267.62228
30.299131 377.51901 268.93604
29.901663 378.27133 269.25595
29.789257 379.05765 270.57077
29.675465 379.84644 271.88669
29.277565 380.59958 272.20694
29.162552 381.39087 273.52386
28.764132 382.14481 273.84448
28.648174 382.93771 275.16214
28.249409 383.6925 275.48309
28.131708 384.48874 276.80219
27.732943 385.24356 277.12314
27.613855 386.04224 278.44327
27.494337 386.84174 279.76373
27.373508 387.64371 281.0853
26.973362 388.40094 281.40732
26.851242 389.20544 282.72989
26.728249 390.01157 284.05319
26.882332 390.86655 286.37778
27.034243 391.72568 288.7041
27.183905 392.5889 291.03223
27.056131 393.40417 292.35938
27.20319 394.27237 294.68961
27.348074 395.14471 297.02158
27.491573 396.0195 299.35461
27.632988 396.8985 301.68939
27.772575 397.78073 304.0256
27.636841 398.61084 305.35913
27.773392 399.4989 307.69778
27.907696 400.39105 310.03821
28.040777 401.28577 312.3797
27.900185 402.12494 313.7171
27.75906 402.96487 315.05487
27.887291 403.86865 317.40021
27.47352 404.65152 317.73315
27.3298 405.49643 319.07303
27.184776 406.34384 320.41394
27.307709 407.25751 322.76355
26.892551 408.04282 323.09756
26.477398 408.82812 323.43158
55.256584 329.43512 250.8175
54.542519 330.21735 250.16888
54.142181 330.97665 250.49147
53.742271 331.73514 250.81372
53.342361 332.49362 251.13596
52.942368 333.25204 251.45822
52.542458 334.01053 251.78046
52.142548 334.76901 252.10269
51.742546 335.52744 252.42496
51.342552 336.28589 252.74721
50.942558 337.04431 253.06947
50.543003 337.80191 253.39137
50.143433 338.55951 253.71329
49.743439 339.31793 254.03555
49.036156 340.08679 253.38133
48.636944 340.84351 253.70291
47.931477 341.6091 253.04729
47.532703 342.36499 253.3685
47.134361 343.12006 253.68938
46.73558 343.87595 254.01059
46.032639 344.63651 253.35287
45.634289 345.39157 253.67375
44.932652 346.14963 253.01497
44.535168 346.90305 253.33514
44.138046 347.65555 253.65497
43.740566 348.40897 253.97514
43.041531 349.16205 253.31425
42.644402 349.91458 253.63409
41.946571 350.66513 252.97218
41.55032 351.41599 253.29131
40.854313 352.16327 252.62796
40.458488 352.9133 252.94675
40.06266 353.66333 253.26553
39.667274 354.41254 253.58395
38.973358 355.15561 252.91887
38.578392 355.90399 253.23695
38.480587 356.66092 254.53961
38.08511 357.4101 254.85806
37.393356 358.14902 254.19122
36.998409 358.8974 254.50929
36.308308 359.63297 253.84108
35.914219 360.37967 254.15845
35.519615 361.12717 254.4762
35.419113 361.88901 255.78098
35.024509 362.63651 256.09872
34.629898 363.384 256.41647
34.235214 364.13144 256.73422
33.840603 364.87894 257.05197
33.445911 365.62637 257.36972
33.342812 366.39322 258.67661
32.947685 367.14148 258.99472
32.553078 367.88898 259.31247
32.44772 368.65991 260.62112
31.763268 369.38467 259.94833
31.657043 370.15729 261.25769
31.550299 370.93063 262.56744
31.154737 371.67975 262.88589
31.046261 372.45645 264.19702
30.650269 373.20636 264.51584
30.254196 373.95624 264.83469
30.144411 374.73541 266.14685
30.033329 375.51709 267.46011
29.63682 376.26779 267.7793
29.524439 377.05194 269.0936
29.411097 377.83771 270.4086
29.297329 378.62433 271.72397
28.899084 379.37836 272.04456
28.784012 380.16742 273.36099
28.667637 380.95898 274.67847
28.268877 381.71381 274.99942
28.151203 382.50787 276.31796
27.751999 383.26349 276.63925
27.633377 384.05917 277.9585
27.233749 384.81564 278.28015
27.113813 385.6138 279.60046
26.99258 386.41443 280.92181
26.870487 387.21674 282.2439
26.747871 388.01984 283.56631
26.623947 388.82541 284.8898
26.499168 389.63263 286.21399
26.650173 390.48901 288.53998
26.523216 391.30042 289.86591
26.671196 392.1626 292.19437
26.817352 393.02808 294.52423
26.961334 393.89771 296.85587
27.103497 394.77057 299.1889
27.244011 395.64682 301.52335
27.38271 396.52634 303.85919
27.519665 397.40918 306.19647
27.654461 398.29617 308.53549
27.516054 399.12903 309.87061
27.647713 400.02176 312.2121
27.77808 400.91699 314.55466
27.906279 401.81638 316.89896
27.762585 402.65912 318.23828
27.618101 403.5036 319.57831
27.203894 404.28729 319.91162
26.789177 405.07175 320.2453
26.911205 405.9827 322.59454
27.031075 406.8978 324.94553
26.615059 407.68475 325.28024
53.765236 329.74762 250.32669
53.364887 330.50693 250.64928
52.964977 331.26541 250.97153
52.565151 332.02396 251.29375
52.165241 332.78244 251.61598
51.765331 333.54092 251.93823
51.36533 334.29935 252.26048
50.965427 335.0578 252.58272
50.565517 335.81628 252.90497
50.165955 336.57391 253.22687
49.765961 337.33234 253.54913
49.058815 338.10345 252.89542
48.659252 338.86108 253.21733
48.260124 339.61786 253.53889
47.861008 340.3746 253.86044
47.156456 341.14078 253.20464
46.757767 341.8967 253.52583
46.359425 342.65176 253.84669
45.960728 343.40771 254.16791
45.258274 344.16968 253.51035
44.860363 344.92389 253.83087
44.159645 345.68253 253.17191
43.762173 346.43594 253.49208
43.364777 347.18939 253.81223
42.967735 347.94196 254.13205
42.269104 348.69638 253.47134
41.872498 349.44812 253.7908
41.175674 350.19931 253.12869
40.779423 350.95016 253.44781
40.383251 351.70108 253.76694
39.986992 352.45193 254.08606
39.591251 353.20203 254.40483
38.897392 353.94733 253.74026
38.501568 354.69736 254.05905
38.106174 355.44656 254.37747
37.710873 356.1958 254.69588
37.315395 356.94495 255.01433
36.92001 357.69415 255.33276
36.229614 358.43283 254.66539
35.834663 359.18121 254.98346
35.146008 359.91656 254.31468
35.045097 360.67709 255.61928
34.65049 361.42456 255.93703
34.255886 362.17206 256.25476
33.861359 362.91962 256.57251
33.466759 363.66711 256.89023
33.072147 364.41458 257.20798
32.968121 365.18088 258.51505
32.573082 365.92917 258.83316
32.178482 366.67667 259.15088
31.78335 367.42496 259.46899
31.677589 368.19455 260.7775
31.282028 368.94363 261.09595
31.174526 369.71655 262.40582
30.778965 370.46564 262.7243
30.670519 371.24017 264.03491
30.274521 371.99011 264.35373
29.878532 372.74002 264.67252
29.767914 373.51868 265.98489
29.656338 374.29895 267.29797
29.544415 375.08011 268.61139
29.147036 375.83249 268.93127
29.033293 376.61691 270.24609
28.919109 377.40216 271.56128
28.803635 378.18991 272.87753
28.405388 378.94394 273.19812
28.288609 379.73416 274.51541
28.170877 380.526 275.83344
27.771681 381.28162 276.15472
27.652721 382.07602 277.47379
27.533165 382.87112 278.79321
27.412403 383.66876 280.11371
27.011986 384.42694 280.43604
26.889828 385.22702 281.7576
26.766886 386.02881 283.0798
26.643431 386.83139 284.4024
26.518669 387.63644 285.72607
26.393044 388.44318 287.05042
26.26646 389.2515 288.37549
26.139103 390.06152 289.70126
26.286095 390.92096 292.02936
26.430914 391.78452 294.35925
26.574429 392.65057 296.69019
26.715778 393.52075 299.02289
26.855301 394.39423 301.35699
27.265812 395.32376 304.69623
27.401436 396.20468 307.03351
27.534885 397.08978 309.37256
27.395554 397.92206 310.70782
27.525969 398.81296 313.04932
27.384035 399.65021 314.38672
27.51133 400.54688 316.73068
27.367229 401.38828 318.06982
27.491394 402.29068 320.41629
27.345123 403.13623 321.7572
26.930058 403.92157 322.09119
26.514629 404.70782 322.42554
26.634033 405.61932 324.77582
26.484634 406.47067 326.11923
52.588028 330.03638 250.80673
52.187775 330.79572 251.1293
51.787865 331.5542 251.45154
51.387955 332.31268 251.77379
50.988129 333.07123 252.09601
50.588219 333.82971 252.41826
49.879826 334.60556 251.76611
49.788391 335.34668 253.06274
49.388912 336.10434 253.38463
48.989006 336.86282 253.70686
48.282787 337.63452 253.05298
47.883232 338.39212 253.37488
47.48418 339.14893 253.69641
47.085056 339.9057 254.01797
46.381443 340.67242 253.36197
45.982746 341.42838 253.68318
45.584488 342.18347 254.00403
45.185795 342.93942 254.32524
44.484268 343.70193 253.6675
44.086449 344.45621 253.98799
43.386646 345.21542 253.32884
42.989258 345.96887 253.64899
42.29076 346.72559 252.9888
41.894154 347.47733 253.30826
41.497116 348.22989 253.62808
40.800789 348.98245 252.96613
